# .PCD v0.7 - Point Cloud Data file format
VERSION 0.7
FIELDS x y z r g b
SIZE 4 4 4 1 1 1
TYPE F F F I I I
COUNT 1 1 1 1 1 1
WIDTH 1191
HEIGHT 1
VIEWPOINT 0 0 0 1 0 0 0
POINTS 1191
DATA ascii
58.673164 17.075817 670.706421 33 10 4
57.604073 15.747337 670.863098 32 12 3
57.568928 14.377726 670.841736 29 11 0
57.533783 13.008114 670.820374 26 8 0
55.430405 11.706876 671.154785 23 6 0
55.395172 10.333774 671.133423 22 4 2
53.291519 9.022121 671.467651 22 2 1
51.187687 7.703525 671.801819 22 2 1
51.152283 6.323498 671.780273 22 3 0
49.048172 4.994486 672.114258 21 3 0
49.012676 3.611007 672.092712 19 5 4
47.942741 2.249525 672.248840 10 0 0
41.700325 0.986071 673.293213 12 4 2
41.664516 -0.409559 673.271423 10 1 0
39.559563 -1.771571 673.604919 24 10 0
39.523663 -3.170673 673.583069 82 61 44
35.349121 -4.516387 674.271484 130 105 83
33.243668 -5.899192 674.604614 129 104 84
31.137987 -7.288979 674.937622 126 104 91
31.101734 -8.701968 674.915588 121 98 92
31.065456 -10.114997 674.893616 89 61 58
31.029203 -11.527985 674.871582 78 48 46
30.992950 -12.941013 674.849548 60 26 24
9.837932 116.475197 679.655029 59 21 20
11.864267 114.710754 679.275940 56 14 15
13.890786 112.953262 678.896973 55 11 10
15.917465 111.202728 678.518066 54 14 6
17.944349 109.459145 678.139343 58 20 11
19.971367 107.722496 677.760620 59 26 17
21.998590 105.992798 677.382080 67 38 32
24.025995 104.270035 677.003662 67 39 38
26.053562 102.554214 676.625305 63 37 40
26.016996 101.129059 676.603088 59 34 38
28.044844 99.423653 676.224915 60 35 39
28.008383 98.001968 676.202759 68 42 41
32.101067 96.033684 675.468872 67 39 36
33.097099 94.484024 675.268921 65 37 36
35.125626 92.804665 674.891174 61 36 39
37.154316 91.132217 674.513489 58 37 42
39.183182 89.466743 674.135986 52 36 46
41.212219 87.808212 673.758484 39 31 44
41.176319 86.409096 673.736694 24 20 35
43.205643 84.760979 673.359436 12 9 26
45.235134 83.119797 672.982239 6 3 20
47.264801 81.485573 672.605164 4 0 14
50.327396 79.738998 672.050537 8 1 9
52.357464 78.120384 671.673706 8 0 0
54.387714 76.508720 671.296997 21 5 6
56.418148 74.904007 670.920410 27 6 3
56.382912 73.530922 670.898987 35 10 3
58.413605 71.936615 670.522583 64 37 28
59.411465 70.458130 670.323730 69 38 33
59.376373 69.090233 670.302429 73 33 41
63.473671 67.300743 669.571350 77 34 41
63.438747 65.939812 669.550110 86 43 36
65.470200 64.375023 669.174133 88 48 36
65.435371 63.017559 669.152954 87 53 43
67.467079 61.463177 668.777161 91 62 56
70.532303 59.819019 668.224121 96 72 72
72.564415 58.280262 667.848511 95 75 76
74.596725 56.748447 667.473083 88 70 66
74.562294 55.406612 667.452148 81 68 59
75.561356 53.974995 667.254028 77 74 57
77.594063 52.458805 666.878845 76 75 55
79.626945 50.949558 666.503723 80 75 56
80.626350 49.531826 666.305786 88 71 53
82.659546 48.034733 665.930908 97 60 44
82.625473 46.706764 665.910156 121 55 41
82.591400 45.378811 665.889465 160 54 41
82.557327 44.050865 665.868774 178 46 34
82.523247 42.722912 665.848083 177 28 21
82.489174 41.394962 665.827393 177 29 17
80.387215 40.211853 666.160583 176 46 24
80.353050 38.880428 666.139832 189 82 64
79.284866 37.617958 666.295959 211 137 136
77.182503 36.419228 666.628845 206 158 172
75.079956 35.213554 666.961670 183 152 184
71.943077 34.064678 667.471191 135 117 157
71.908562 32.719368 667.450195 93 82 122
71.874039 31.374060 667.429260 61 55 91
69.770920 30.145817 667.761719 8 1 34
69.736313 28.797016 667.740662 13 0 22
69.701698 27.448235 667.719666 30 7 17
69.667091 26.099455 667.698669 32 6 7
69.632484 24.750675 667.677612 26 5 4
69.597870 23.401894 667.656616 23 3 4
64.390434 22.293705 668.518372 18 0 7
64.355606 20.936245 668.497192 16 0 8
64.320770 19.578787 668.476074 14 0 8
60.147137 18.392971 669.160767 15 0 9
58.042648 17.110914 669.492371 16 4 4
56.972763 15.782479 669.647522 17 8 3
56.937618 14.412868 669.626160 17 8 0
56.902473 13.043256 669.604797 16 7 0
54.797478 11.742107 669.936096 14 4 2
54.762245 10.369005 669.914734 13 3 4
54.727009 8.995921 669.893311 14 2 6
48.481441 7.796982 670.929443 17 2 7
48.445946 6.413484 670.907898 19 4 7
48.410450 5.029985 670.886353 20 5 8
47.339760 3.670323 671.040955 19 4 9
45.233734 2.329230 671.371643 13 2 6
41.056992 1.021882 672.054504 14 5 6
41.021183 -0.373748 672.032715 14 5 0
40.985371 -1.769418 672.010986 35 22 6
38.878719 -3.134773 672.341309 89 71 49
36.771919 -4.507113 672.671509 128 107 80
36.735928 -5.909687 672.649658 121 100 73
34.628845 -7.292441 672.979736 117 99 79
34.592777 -8.698486 672.957825 113 94 80
34.556679 -10.104572 672.935913 91 66 61
34.520611 -11.510616 672.914001 84 54 54
34.484539 -12.916701 672.892090 57 23 24
9.205462 117.965401 678.388123 57 25 10
11.233305 116.197418 678.012024 53 16 10
13.261326 114.436371 677.636047 49 7 8
15.289534 112.682266 677.260193 49 5 6
15.252499 111.239746 677.237732 51 10 4
19.346439 109.194908 676.508850 57 19 8
19.309614 107.759331 676.486450 61 29 14
23.404104 105.735321 675.757874 67 40 23
23.367434 104.306694 675.735596 64 41 25
25.396627 102.590782 675.360413 62 40 27
25.360064 101.165627 675.338196 58 36 25
27.389496 99.460129 674.963074 57 35 22
29.419113 97.761589 674.588074 65 42 28
32.482014 95.933289 674.036804 68 42 29
34.512043 94.250374 673.662048 63 36 29
36.542233 92.574387 673.287415 63 37 36
38.572628 90.905334 672.912903 60 38 41
38.536636 89.502731 672.891052 55 38 46
40.567268 87.844116 672.516663 46 36 47
42.598106 86.192429 672.142456 35 29 43
42.562298 84.796791 672.120667 21 17 34
46.660294 82.909912 671.394226 11 7 22
48.691647 81.279068 671.020264 5 0 13
49.689640 79.774498 670.822571 10 0 11
51.721317 78.155792 670.448853 9 0 3
53.753174 76.544044 670.075195 21 5 6
55.785198 74.939240 669.701721 28 7 4
57.817410 73.341370 669.328308 39 14 9
57.782265 71.971756 669.306946 64 37 30
58.780930 70.493225 669.109619 68 37 35
60.813530 68.910965 668.736450 69 31 42
62.846325 67.335663 668.363403 73 31 43
62.811401 65.974739 668.342163 80 36 35
64.844452 64.409851 667.969238 82 42 32
66.877678 62.851910 667.596497 80 46 36
67.877014 61.399414 667.399597 84 54 46
69.910553 59.853626 667.026978 86 61 57
71.944275 58.314781 666.654480 85 61 59
73.978172 56.782879 666.282104 84 66 56
74.977997 55.349483 666.085449 73 60 44
74.943604 54.009380 666.064575 65 60 40
79.046600 52.316925 665.341187 59 57 34
79.012390 50.983765 665.320435 64 58 34
80.012611 49.565990 665.124023 80 62 40
82.047401 48.068806 664.752197 99 61 42
84.082375 46.578545 664.380493 129 62 45
84.048386 45.254070 664.359863 156 50 37
84.014404 43.929588 664.339172 168 33 30
83.980423 42.605114 664.318542 169 11 26
83.946434 41.280632 664.297913 169 9 33
83.912453 39.956150 664.277283 162 19 39
81.808876 38.773136 664.607361 170 55 72
79.705139 37.583176 664.937317 188 110 124
78.636108 36.319008 665.091858 182 129 145
76.532051 35.116894 665.421692 173 138 158
73.392860 33.971622 665.926575 143 124 146
73.358437 32.629787 665.905701 111 101 126
71.253891 31.408579 666.235168 68 65 92
71.219368 30.063271 666.214233 8 8 36
69.114563 28.831625 666.543518 4 0 24
69.079956 27.482845 666.522522 21 2 21
71.115814 26.027323 666.151306 21 0 16
69.010735 24.785284 666.480469 19 0 24
68.976128 23.436502 666.459473 18 0 27
68.941521 22.087721 666.438416 16 0 29
63.695023 19.613619 667.271179 16 2 27
59.518192 18.427980 667.949768 15 4 20
57.412098 17.146013 668.278320 12 5 12
56.341412 15.817622 668.431885 10 4 4
56.306267 14.448010 668.410522 10 5 2
56.271122 13.078399 668.389160 14 5 6
56.235977 11.708787 668.367859 14 3 9
54.129307 10.404237 668.696045 11 0 9
52.022442 9.092763 669.024109 11 0 10
46.807831 7.861551 669.876221 15 0 10
46.772297 6.476316 669.854614 18 1 11
47.772694 5.065485 669.658386 18 1 11
46.701199 3.705867 669.811462 19 3 16
44.593601 2.364862 670.139099 16 2 15
42.485798 1.016915 670.466553 14 5 10
40.377838 -0.337937 670.794006 17 9 6
40.342026 -1.733607 670.772217 46 34 20
40.306217 -3.129237 670.750488 94 78 55
38.197868 -4.498014 671.077637 118 99 67
38.161980 -5.897116 671.055847 108 89 57
36.053391 -7.276310 671.382874 96 80 54
36.017399 -8.678884 671.361023 94 77 57
35.981407 -10.081498 671.339172 87 65 54
33.872459 -11.474537 671.665955 86 57 53
33.836388 -12.880622 671.644043 58 24 23
8.535739 118.002686 677.098572 52 21 1
12.631908 115.919472 676.375244 48 11 3
14.661592 114.161797 676.002380 46 4 6
16.691484 112.411087 675.629639 47 2 7
16.654554 110.972046 675.607239 50 9 7
18.684731 109.231743 675.234680 56 18 9
20.715067 107.498390 674.862244 65 34 16
22.745560 105.771973 674.489929 66 39 18
24.776257 104.052505 674.117676 61 39 16
24.739691 102.627350 674.095459 62 42 18
26.770653 100.918304 673.723389 59 38 17
26.734165 99.496613 673.701233 56 35 16
28.765388 97.797981 673.329346 63 42 21
31.830687 95.969543 672.782715 67 44 26
33.862301 94.286537 672.411011 67 39 28
35.894096 92.610466 672.039490 68 40 36
37.926098 90.941322 671.668030 63 42 41
39.958260 89.279129 671.296692 59 40 44
41.990578 87.623901 670.925476 53 42 50
41.954769 86.228241 670.903687 48 40 51
46.055790 84.334251 670.183289 35 29 43
48.088665 82.699844 669.812439 22 16 30
48.053127 81.314606 669.790833 4 0 9
49.051929 79.809998 669.594666 10 0 9
53.153965 77.955925 668.874939 11 0 3
55.187508 76.347549 668.504395 19 3 4
57.221210 74.746132 668.133972 28 7 6
57.186066 73.376511 668.112671 41 17 13
58.185493 71.896202 667.916870 64 39 32
58.150402 70.528328 667.895569 72 44 43
62.253910 68.731522 667.176697 75 41 57
62.218987 67.370583 667.155457 77 39 54
64.253563 65.802139 666.785645 80 40 40
64.218727 64.444679 666.764465 79 41 32
66.253548 62.886650 666.394714 78 44 34
67.253685 61.434113 666.199402 78 48 38
69.288826 59.888237 665.829834 78 51 44
71.324150 58.349300 665.460449 75 50 43
73.359642 56.817307 665.091125 70 51 37
74.360283 55.383869 664.896118 62 47 28
76.396088 53.864025 664.526978 57 51 25
78.432068 52.351131 664.157959 52 48 21
78.397865 51.017971 664.137146 54 47 19
79.398895 49.600151 663.942383 73 51 27
81.435280 48.102879 663.573608 97 55 31
83.471848 46.612530 663.204956 127 59 38
83.437866 45.288055 663.184326 145 42 23
83.403877 43.963573 663.163635 164 32 27
83.369896 42.639095 663.143005 171 20 39
83.335915 41.314617 663.122375 170 17 47
83.301926 39.990135 663.101746 146 8 41
81.196770 38.807209 663.428711 143 33 58
79.091423 37.617336 663.755615 168 92 104
79.057274 36.285915 663.734863 167 114 120
77.987373 35.020058 663.887878 155 119 123
73.810104 33.942223 664.561951 139 116 124
73.775734 32.602123 664.541077 122 109 126
72.705482 31.322378 664.693848 84 81 102
72.671043 29.980539 664.672913 30 31 59
68.492836 28.866232 665.346436 14 11 40
68.458229 27.517452 665.325439 22 6 33
68.423622 26.168673 665.304382 16 0 25
68.389008 24.819891 665.283386 20 4 40
68.354416 23.471111 665.262390 16 4 42
68.319801 22.122328 665.241333 14 2 38
58.889271 18.462988 666.738770 6 2 17
56.781570 17.181112 667.064209 8 6 11
55.710068 15.852765 667.216248 9 7 8
55.674938 14.483153 667.194885 9 4 8
55.639793 13.113542 667.173584 14 9 15
55.604649 11.743930 667.152222 17 9 24
53.496380 10.439468 667.477356 17 4 24
46.204853 9.282329 668.668335 15 0 21
46.169315 7.897094 668.646729 17 0 18
46.133766 6.511859 668.625183 18 0 12
47.134979 5.100983 668.430481 17 0 11
46.062683 3.741410 668.581970 18 0 16
46.027138 2.356156 668.560425 15 1 14
43.917816 1.011769 668.884888 14 4 12
41.808361 -0.339522 669.209290 25 17 15
39.698692 -1.697796 669.533508 56 46 34
39.662880 -3.093426 669.511780 88 76 54
39.627071 -4.489096 669.490051 99 84 53
39.591263 -5.884726 669.468262 92 78 43
37.481144 -7.260359 669.792297 76 66 31
37.445259 -8.659461 669.770508 81 67 40
37.409344 -10.058601 669.748657 79 60 43
37.373459 -11.457705 669.726868 81 54 45
37.337543 -12.856845 669.705078 62 29 24
14.033677 115.641350 674.744568 46 6 6
16.065073 113.887054 674.374878 45 2 11
16.028168 112.448006 674.352478 47 1 11
15.991238 111.008965 674.330017 48 6 8
18.022999 109.268578 673.960571 52 13 6
22.123684 107.237274 673.244202 68 36 21
22.087040 105.808632 673.221924 65 38 17
24.119322 104.089073 672.852783 58 36 13
26.151810 102.376465 672.483765 61 40 19
28.184435 100.670799 672.114807 60 42 22
31.251869 98.831818 671.572632 59 38 19
31.215616 97.418808 671.550598 64 43 22
33.248734 95.732239 671.181946 66 44 23
33.212585 94.322708 671.160034 71 44 27
35.245983 92.646538 670.791565 73 45 33
35.209915 91.240448 670.769653 68 45 37
39.313316 89.315033 670.054871 62 44 40
41.347263 87.659706 669.686768 61 46 49
43.381363 86.011322 669.318726 60 49 55
45.415676 84.369881 668.950806 49 42 50
45.380035 82.981178 668.929138 36 29 37
47.414600 81.350151 668.561401 13 3 12
48.414196 79.845490 668.366760 12 1 9
52.519432 77.991249 667.653137 11 0 1
54.554569 76.382782 667.285706 19 0 2
56.589901 74.781273 666.918457 32 12 11
56.554756 73.411659 666.897095 51 27 25
57.554977 71.931297 666.702820 68 44 40
57.519871 70.563423 666.681519 73 47 50
61.626595 68.766441 665.968811 75 46 66
61.591671 67.405502 665.947632 76 45 63
63.627827 65.836975 665.580811 77 43 44
63.592999 64.479515 665.559631 75 41 32
65.629440 62.921391 665.193054 76 44 31
68.701721 61.271626 664.653809 75 46 32
70.738541 59.729130 664.287415 73 46 35
72.775558 58.193581 663.921082 71 47 35
75.848564 56.571583 663.382324 66 43 27
75.814262 55.234955 663.361511 57 41 18
75.779968 53.898323 663.340637 53 44 15
77.817551 52.385338 662.974731 43 37 5
77.783340 51.052181 662.953918 42 28 0
78.785164 49.634315 662.760681 61 34 7
82.895317 47.971012 662.050049 90 42 19
82.861336 46.646515 662.029419 121 49 25
84.899666 45.163040 661.663940 145 47 18
84.865776 43.842033 661.643311 151 34 14
84.831871 42.521027 661.622742 153 21 19
84.797981 41.200020 661.602173 150 20 32
84.764084 39.879013 661.581604 125 10 25
82.657417 38.699642 661.905579 118 25 33
80.550575 37.513332 662.229431 139 72 64
78.443542 36.320076 662.553162 136 89 73
77.372856 35.054264 662.704651 138 100 87
75.265526 33.848858 663.028198 131 102 98
75.231224 32.512226 663.007385 129 109 121
73.123611 31.296404 663.330750 111 99 123
72.052528 30.014969 663.481995 82 77 107
72.018089 28.673113 663.461060 64 58 92
69.910080 27.441668 663.784241 64 50 85
69.875565 26.096359 663.763245 54 38 74
67.767296 24.854498 664.086304 39 28 62
67.732689 23.505718 664.065247 39 32 65
67.698074 22.156937 664.044250 38 31 62
52.863441 10.474700 666.258667 17 6 36
45.566334 9.317872 667.438904 17 4 30
45.530788 7.932637 667.417297 17 4 24
45.495239 6.547402 667.395691 17 3 16
46.497246 5.136482 667.202515 17 1 11
45.424156 3.776953 667.352539 19 2 12
45.388618 2.391699 667.330933 20 4 14
43.277718 1.047401 667.652344 23 14 19
41.166611 -0.303800 667.973633 42 36 36
41.130905 -1.695999 667.951904 71 62 55
39.019566 -3.057616 668.273071 85 73 57
38.983757 -4.453287 668.251343 84 73 45
38.947948 -5.848916 668.229614 81 71 35
38.912140 -7.244586 668.207825 74 66 27
38.876331 -8.640216 668.186096 79 71 34
38.840496 -10.035886 668.164307 77 61 35
36.728516 -11.421804 668.485046 72 49 31
36.692627 -12.820946 668.463257 65 33 22
15.438643 115.363045 673.120056 42 2 3
15.401738 113.923973 673.097595 44 1 8
15.364808 112.484932 673.075195 45 0 5
17.398071 110.740990 672.708740 45 4 2
17.361244 109.305412 672.686401 49 11 0
21.465145 107.273926 671.976196 68 37 19
23.498955 105.550812 671.610046 65 39 16
25.532900 103.834641 671.244019 57 35 12
27.567072 102.125404 670.878174 61 41 17
29.601408 100.423119 670.512329 61 43 21
30.600525 98.868073 670.318481 59 41 19
32.635170 97.177948 669.952881 64 44 20
32.598995 95.768410 669.930908 63 41 18
34.633900 94.088684 669.565430 69 43 20
34.597832 92.682617 669.543518 71 44 25
36.633003 91.013298 669.178223 65 43 29
38.668354 89.350929 668.813049 60 42 32
40.703911 87.695518 668.447998 60 46 43
42.739624 86.047050 668.083069 62 50 50
44.775520 84.405518 667.718201 55 46 49
46.811588 82.770927 667.353455 45 36 41
46.776054 81.385696 667.331909 29 18 24
47.776447 79.880989 667.138794 20 7 14
51.884892 78.026566 666.431335 14 0 4
53.921623 76.418015 666.067017 24 5 7
55.958549 74.816414 665.702820 45 25 26
56.959522 73.334274 665.510071 63 42 41
56.924416 71.966400 665.488708 69 48 45
58.961735 70.380424 665.124756 68 45 51
58.926735 69.015991 665.103516 66 43 63
60.964314 67.440422 664.739685 68 43 62
63.002087 65.871803 664.375977 70 42 41
65.040031 64.310127 664.012329 70 40 30
68.114586 62.655014 663.477661 73 44 30
70.152924 61.108955 663.114258 74 46 32
73.227959 59.472942 662.579895 73 45 34
73.193588 58.132843 662.559021 72 45 34
75.232414 56.605881 662.195923 70 44 29
75.198120 55.269253 662.175110 58 37 16
77.237213 53.752705 661.812195 51 37 11
77.203011 52.419548 661.791443 38 24 0
78.205582 50.999901 661.599670 32 11 0
80.245094 49.498981 661.237000 49 16 0
82.284775 48.004997 660.874451 80 24 9
82.250786 46.680500 660.853821 108 32 18
84.290733 45.196934 660.491455 134 41 24
84.256836 43.875927 660.470825 142 38 27
84.222931 42.554920 660.450256 144 31 33
84.189041 41.233913 660.429688 138 28 37
84.155151 39.912907 660.409058 108 12 23
82.046875 38.733627 660.729980 95 16 19
79.938431 37.547405 661.050781 119 62 45
79.904358 36.219456 661.030090 129 85 58
77.795631 35.022816 661.350708 136 99 73
74.649376 33.883152 661.841858 130 98 85
74.615082 32.546524 661.821045 135 108 115
74.580788 31.209896 661.800171 129 110 129
72.471481 29.990690 662.120483 122 113 134
71.399544 28.707544 662.270081 107 99 122
71.365120 27.365709 662.249207 104 94 119
69.255424 26.130880 662.569214 94 84 109
67.145546 24.889107 662.889160 100 92 116
67.110939 23.540327 662.868103 103 99 122
65.000793 22.288139 663.187866 104 101 122
64.966095 20.935886 663.166809 92 91 107
50.118847 9.198726 665.358765 19 7 27
48.007000 7.880575 665.677490 18 6 20
45.895008 6.555480 665.996155 19 7 9
45.859497 5.171981 665.974609 22 8 5
44.785610 3.812497 666.123047 34 16 14
44.750061 2.427243 666.101440 34 20 17
42.637562 1.083034 666.419739 42 34 31
40.524883 -0.268078 666.737976 63 58 54
40.489155 -1.660277 666.716248 84 75 68
40.453423 -3.052434 666.694580 85 76 61
38.340378 -4.417474 667.012573 79 69 44
38.304569 -5.813104 666.990845 76 68 32
38.268761 -7.208773 666.969055 69 66 23
38.232952 -8.604403 666.947327 75 70 30
38.197140 -10.000073 666.925598 73 60 28
38.161331 -11.395703 666.903809 67 45 22
38.125523 -12.791374 666.882080 68 36 23
12.740821 117.157898 672.206421 41 6 2
14.775326 115.399971 671.842834 40 0 0
16.810013 113.648972 671.479370 42 1 0
16.773186 112.213394 671.456970 45 2 0
16.736361 110.777824 671.434631 47 8 0
18.771391 109.040726 671.071350 53 17 0
22.878582 107.012535 670.367371 67 37 9
22.842018 105.587379 670.345154 64 40 12
24.877596 103.871117 669.982239 58 38 13
26.913353 102.161789 669.619385 60 42 18
28.949291 100.459419 669.256714 60 42 20
29.949175 98.904327 669.064331 58 40 16
31.985428 97.214111 668.701843 62 42 17
34.021839 95.530830 668.339417 60 39 10
33.985771 94.124763 668.317505 66 39 10
36.022465 92.451897 667.955261 67 40 13
38.059345 90.785957 667.593079 63 41 18
40.096405 89.126976 667.231079 59 40 25
40.060596 87.731331 667.209351 58 44 35
44.171024 85.829857 666.507324 59 48 44
46.208607 84.191704 666.145569 56 46 45
47.209717 82.683487 665.953979 49 39 40
47.174210 81.299988 665.932434 44 33 37
49.212208 79.677467 665.570984 34 19 24
51.250355 78.061890 665.209595 28 12 15
53.288696 76.453247 664.848328 39 20 24
56.364098 74.737251 664.317322 59 39 41
58.402840 73.144234 663.956299 71 49 51
58.367825 71.779831 663.935059 68 46 48
60.406841 70.197235 663.574219 65 44 51
60.371918 68.836281 663.552979 58 41 59
62.411186 67.264099 663.192322 62 44 58
64.450645 65.698860 662.831726 65 44 41
65.453087 64.242714 662.640930 70 44 31
67.492859 62.689621 662.280518 74 48 31
69.532791 61.143475 661.920227 75 47 33
72.610245 59.507328 661.390503 72 43 35
72.575851 58.167229 661.369568 71 42 36
74.616295 56.640175 661.009644 63 34 26
76.656898 55.120071 660.649719 57 30 19
76.622696 53.786911 660.628967 56 36 25
77.626038 52.365490 660.438721 49 29 20
79.667038 50.861004 660.079102 43 15 12
81.708229 49.363464 659.719543 53 11 13
81.674248 48.038982 659.698914 71 6 12
83.715706 46.551838 659.339539 83 3 16
83.681808 45.230831 659.318970 98 6 29
83.647919 43.909824 659.298401 103 7 34
84.651871 42.512703 659.108521 101 7 31
84.618034 41.193432 659.087952 104 16 38
84.584175 39.874161 659.067383 89 12 32
83.512337 38.625797 659.216064 79 16 24
81.402382 37.443138 659.533813 102 53 38
81.368385 36.118656 659.513184 117 75 50
79.258156 34.925579 659.830750 131 91 65
76.109581 33.789520 660.317322 132 95 76
76.075378 32.456364 660.296570 143 112 109
73.964661 31.244192 660.613892 145 119 122
71.853752 30.025076 660.931030 155 139 139
70.781036 28.741972 661.079163 150 140 138
70.746597 27.400139 661.058228 154 146 144
68.635300 26.165400 661.375183 146 140 142
66.523827 24.923716 661.692017 136 131 138
66.489212 23.574936 661.671021 140 134 146
64.377472 22.322838 661.987671 139 135 150
64.342773 20.970583 661.966614 130 127 144
45.363762 10.741475 664.832886 58 51 58
45.328266 9.357976 664.811340 56 46 47
47.370880 7.915984 664.452698 52 41 35
45.257259 6.590979 664.768188 54 42 26
45.221764 5.207480 664.746643 58 46 24
44.147091 3.848040 664.893555 59 45 19
44.111546 2.462786 664.872009 59 47 23
41.997440 1.118666 665.187195 63 56 38
41.961788 -0.270020 665.165588 72 68 56
39.847424 -1.624555 665.480652 83 76 66
39.811691 -3.016712 665.458923 82 74 61
39.775990 -4.408911 665.437256 76 68 45
37.661255 -5.777294 665.752136 71 65 31
37.625446 -7.172964 665.730408 65 63 22
37.589638 -8.568593 665.708618 66 63 22
35.474541 -9.950902 666.023254 72 59 27
35.438652 -11.350005 666.001465 66 45 24
35.402740 -12.749146 665.979675 67 35 24
14.148896 116.875946 670.588013 41 3 2
14.111965 115.436897 670.565552 41 0 0
16.148264 113.685806 670.205139 44 1 0
16.111412 112.250229 670.182800 47 3 0
16.074585 110.814667 670.160400 54 12 0
22.258194 108.474266 669.124634 60 24 2
22.221628 107.049103 669.102417 65 35 11
22.185062 105.623947 669.080200 65 41 17
24.222221 103.907600 668.720337 60 39 18
26.259584 102.198181 668.360596 62 41 22
28.297110 100.495728 668.000977 61 40 19
29.297810 98.940582 667.810181 58 38 13
31.335669 97.250282 667.450745 61 40 11
33.373711 95.566910 667.091431 60 37 5
35.411911 93.890488 666.732178 67 41 8
37.450294 92.221001 666.373047 68 41 11
37.414406 90.821861 666.351257 67 44 13
41.527580 88.902840 665.655151 64 44 20
43.566513 87.254196 665.296326 64 47 31
45.605598 85.612488 664.937683 66 49 39
45.570049 84.227249 664.916077 63 48 41
46.571960 82.718987 664.726013 57 43 40
46.536465 81.335487 664.704468 55 39 40
48.576038 79.712875 664.346069 45 29 32
50.615814 78.097206 663.987793 45 26 30
52.655758 76.488480 663.629639 54 33 38
55.733536 74.772346 663.103210 67 46 53
57.773884 73.179245 662.745300 72 51 60
57.738884 71.814835 662.724060 65 44 51
61.855110 70.013863 662.029785 64 44 55
61.820278 68.656395 662.008606 56 42 59
61.785450 67.298927 661.987427 64 48 61
63.826492 65.733597 661.629944 69 48 47
64.829742 64.277412 661.440735 72 48 38
68.947174 62.523312 660.747192 77 50 39
70.988800 60.980541 660.390015 75 48 37
71.992493 59.541714 660.201050 67 42 35
74.034447 58.011101 659.844055 66 41 34
76.076569 56.487438 659.487244 65 38 27
76.042351 55.154278 659.466431 56 32 20
76.008148 53.821121 659.445679 58 36 23
77.012276 52.399651 659.256958 53 28 21
79.054901 50.895081 658.900452 47 15 16
81.097687 49.397449 658.544006 54 11 18
81.063705 48.072968 658.523315 65 5 15
83.106766 46.585732 658.167053 68 0 15
83.072876 45.264725 658.146484 72 0 23
83.038979 43.943718 658.125916 83 8 38
84.043724 42.546555 657.937561 84 14 40
86.087288 41.078434 657.581604 91 26 50
83.976036 39.908012 657.896423 79 21 43
82.903389 38.659691 658.043579 71 19 31
80.791824 37.477123 658.358215 94 49 43
80.757843 36.152641 658.337585 114 72 56
78.646011 34.959652 658.652100 125 84 66
76.534004 33.759720 658.966492 130 93 77
75.460838 32.490570 659.113281 142 107 103
75.426620 31.157412 659.092529 138 107 105
71.236015 30.059462 659.741577 151 128 122
71.201622 28.719339 659.720703 147 130 122
65.867470 23.609545 660.473877 161 146 149
65.832863 22.260761 660.452820 163 149 162
44.726021 10.776975 663.604919 84 72 72
48.849770 9.269368 662.915222 75 61 58
46.734722 7.951396 663.227783 67 53 42
46.699318 6.571368 663.206299 66 54 32
44.584007 5.242980 663.518677 72 58 32
43.508533 3.883585 663.664063 82 66 41
43.472984 2.498331 663.642456 80 66 40
43.437435 1.113076 663.620911 74 66 43
41.321648 -0.234387 663.932983 73 66 47
41.286022 -1.623113 663.911316 75 68 49
39.169968 -2.980991 664.223328 77 71 49
39.134235 -4.373189 664.201599 76 69 41
39.098507 -5.765347 664.179871 67 62 30
36.982113 -7.137153 664.491638 67 65 26
36.946304 -8.532783 664.469910 64 60 22
34.829601 -9.915002 664.781433 72 63 32
34.793690 -11.314104 664.759644 68 50 28
34.757801 -12.713245 664.737854 61 35 22
13.485558 116.912872 669.310730 50 8 9
13.448627 115.473824 669.288330 48 2 2
15.486527 113.722641 668.931030 45 0 0
15.449701 112.287064 668.908630 50 1 0
17.487841 110.546326 668.551514 58 10 6
21.601255 108.510834 667.859741 67 24 18
23.639864 106.787453 667.502869 66 31 25
23.603378 105.365761 667.480713 68 37 32
25.642269 103.652794 667.124023 68 41 34
27.681295 101.946770 666.767395 63 39 27
27.644991 100.532021 666.745361 60 37 19
28.646509 98.976837 666.556091 62 38 12
30.685953 97.286446 666.199707 65 41 7
32.725578 95.602989 665.843445 65 39 4
34.765385 93.926476 665.487305 69 40 8
36.805370 92.256897 665.131287 67 38 4
38.845520 90.594254 664.775330 65 39 2
42.962017 88.678535 664.085449 66 41 10
45.002628 87.033264 663.729797 68 43 23
46.005241 85.521477 663.541260 67 44 30
45.969746 84.137985 663.519653 67 45 32
45.934250 82.754486 663.498108 69 46 38
47.975338 81.128311 663.142761 61 40 39
47.939919 79.748283 663.121216 54 32 35
52.058067 77.896797 662.432373 51 29 32
54.099689 76.291451 662.077332 59 38 45
57.179977 74.578651 661.555603 70 47 65
59.222000 72.988930 661.200806 71 50 69
59.187080 71.627998 661.179565 67 46 63
61.229378 70.048698 660.824951 67 46 63
63.271847 68.476318 660.470398 61 42 61
63.237110 67.122330 660.449280 69 48 65
64.241127 65.664360 660.261597 71 46 52
66.283997 64.107620 659.907288 79 50 52
68.327042 62.557831 659.553101 91 63 62
70.370293 61.014973 659.199097 96 70 69
71.374779 59.576099 659.011658 96 77 71
73.418320 58.045399 658.657776 90 74 61
75.462044 56.521645 658.303955 85 69 46
75.427834 55.188484 658.283203 78 61 35
75.393616 53.855328 658.262451 76 52 28
75.359413 52.522167 658.241638 89 61 40
78.442764 50.929153 657.721802 101 67 57
80.487175 49.431435 657.368469 103 64 59
82.531738 47.940655 657.015198 103 64 57
82.497849 46.619629 656.994629 100 61 54
82.463959 45.298622 656.974060 96 57 50
82.430061 43.977615 656.953430 93 55 52
85.514511 42.427994 656.434265 94 55 60
87.559761 40.963257 656.081421 93 52 66
83.367905 39.941864 656.725525 92 51 69
82.294472 38.693588 656.871094 83 42 60
82.260574 37.372581 656.850525 82 40 50
82.226685 36.051575 656.829956 103 62 66
80.113342 34.862148 657.141418 102 62 62
75.920273 33.793884 657.784790 101 61 61
74.846306 32.524776 657.930054 106 67 72
74.812088 31.191620 657.909241 112 75 82
74.777885 29.858463 657.888489 122 89 96
46.134022 9.366832 662.024475 82 62 64
46.098606 7.986804 662.002930 75 56 52
46.063187 6.606778 661.981445 72 54 42
46.027794 5.226750 661.959961 69 51 37
42.870018 3.919128 662.434631 72 53 47
42.834469 2.533873 662.413025 76 57 50
42.798920 1.148619 662.391418 77 61 45
42.763371 -0.236596 662.369812 74 62 36
40.645874 -1.587480 662.678772 73 62 30
38.528236 -2.945269 662.987671 73 65 29
38.492508 -4.337468 662.966003 71 65 29
38.456776 -5.729626 662.944275 70 66 31
36.338776 -7.101342 663.252930 68 65 32
34.220570 -8.479961 663.561462 70 67 34
34.184681 -9.879103 663.539673 69 62 33
34.148766 -11.278205 663.517883 62 52 27
12.822214 116.949791 668.033508 49 8 6
12.785310 115.510742 668.011108 50 5 2
14.824796 113.759476 667.656860 50 1 0
14.787943 112.323898 667.634521 55 6 2
16.827711 110.583069 667.280457 56 11 8
23.021021 108.245613 666.263184 59 19 17
22.984533 106.823929 666.241028 63 30 25
25.024906 105.107399 665.887329 60 33 26
24.988523 103.689186 665.865234 57 34 26
27.029158 101.983070 665.511719 57 35 22
28.031439 100.426109 665.323975 59 38 21
27.995161 99.013092 665.301941 62 40 17
30.036211 97.322617 664.948669 66 40 13
32.077465 95.639061 664.595520 66 41 11
34.118855 93.962463 664.242493 65 40 10
36.160427 92.292801 663.889526 64 39 8
40.279850 90.366463 663.205627 67 43 9
42.321888 88.714165 662.852905 68 43 13
44.364090 87.068810 662.500305 67 41 24
45.367493 85.556976 662.313293 73 47 34
45.331997 84.173485 662.291748 74 51 37
45.296501 82.789986 662.270203 69 47 36
47.339218 81.163719 661.917908 63 38 41
47.303799 79.783699 661.896423 60 37 43
51.425140 77.932030 661.213684 60 38 41
53.468369 76.326591 660.861694 63 42 49
58.629601 74.384789 660.014099 67 46 61
58.594677 73.023849 659.992859 66 45 64
60.638477 71.440994 659.641296 64 43 60
62.682484 69.865059 659.289795 66 46 58
63.687191 68.403564 659.103577 65 45 54
63.652493 67.051308 659.082458 76 55 60
63.617790 65.699059 659.061401 82 56 59
65.662270 64.142227 658.710205 89 60 64
69.786194 62.391243 658.029053 96 67 72
70.791435 60.950584 657.843140 98 73 77
72.836502 59.416328 657.492310 99 81 81
72.802200 58.079693 657.471436 94 80 71
74.847511 56.555851 657.120728 82 67 44
74.813301 55.222694 657.099976 84 64 37
74.779099 53.889534 657.079163 87 57 31
74.744896 52.556374 657.058411 102 67 47
74.710686 51.223217 657.037659 120 82 71
81.922813 47.974548 655.842712 127 98 90
81.888924 46.653522 655.822144 116 92 82
86.988510 42.309258 654.937073 106 80 81
86.954834 40.996929 654.916626 94 64 74
86.921165 39.684601 654.896179 102 71 86
81.617760 36.085468 655.657471 98 63 67
79.502815 34.896130 655.965881 91 57 56
75.306549 33.828045 656.603088 69 33 33
75.272400 32.496624 656.582336 96 60 64
49.698776 10.650859 660.165222 108 82 93
49.663544 9.277776 660.143799 88 62 71
49.628307 7.904693 660.122375 76 51 55
49.593086 6.531609 660.101013 69 49 42
51.640942 5.106708 659.751831 64 44 35
45.356258 3.882153 660.713623 68 49 45
43.237568 2.546980 661.019714 68 49 43
43.202045 1.163462 660.998169 68 51 35
43.166550 -0.220017 660.976563 69 53 28
42.089287 -1.586306 661.118774 70 57 23
39.970146 -2.940535 661.424622 72 60 22
39.934494 -4.329262 661.403015 71 63 26
37.815048 -5.693905 661.708618 70 64 28
35.695438 -7.065531 662.014221 72 67 37
35.659630 -8.461161 661.992493 77 71 45
33.539738 -9.843203 662.297852 73 67 45
33.503849 -11.242306 662.276062 58 50 31
12.195785 118.425766 666.778687 42 9 4
12.158879 116.986717 666.756287 44 7 1
12.121949 115.547668 666.733826 44 3 0
14.163042 113.796310 666.382690 46 3 0
14.126189 112.360733 666.360291 50 7 0
16.167568 110.619820 666.009338 51 13 2
22.365646 108.282097 665.001343 54 22 7
24.407549 106.562004 664.650696 54 28 11
26.449606 104.848854 664.300110 47 29 9
26.413326 103.434113 664.278076 46 31 10
27.416348 101.875374 664.091858 49 36 17
27.380068 100.462364 664.069824 56 41 22
29.422647 98.768311 663.719604 59 42 26
29.386473 97.358780 663.697632 62 40 27
31.429287 95.675140 663.347534 63 40 26
33.472309 93.998451 662.997559 61 43 19
37.594639 92.061539 662.319641 57 41 16
41.717377 90.138504 661.641968 57 40 20
43.761074 88.489586 661.292419 57 39 25
44.765270 86.975983 661.106934 58 39 32
44.729774 85.592476 661.085388 64 45 38
44.694279 84.208984 661.063782 65 47 35
44.658756 82.825485 661.042236 54 37 30
46.703056 81.199127 660.693054 55 35 46
46.667664 79.819107 660.671509 64 44 56
50.792183 77.967262 659.994934 73 54 60
52.837006 76.361732 659.646057 80 61 63
58.002251 74.419708 658.806152 86 70 73
57.967331 73.058769 658.784973 92 76 79
60.012737 71.475822 658.436401 99 82 88
62.058331 69.899803 658.088013 108 90 90
62.023590 68.545799 658.066895 103 85 71
61.988838 67.191811 658.045837 100 79 60
62.994438 65.733757 657.861145 91 68 54
65.040527 64.176842 657.513062 102 74 70
69.167648 62.425674 656.838074 117 88 93
70.173698 60.984974 656.653687 115 89 100
72.220360 59.450626 656.305908 98 75 85
74.267189 57.923218 655.958252 74 52 55
74.232979 56.590057 655.937500 56 32 22
75.239433 55.164982 655.753357 74 45 29
74.164558 53.923740 655.895935 85 48 32
74.130356 52.590584 655.875122 93 50 41
74.096146 51.257423 655.854370 99 57 58
86.383575 42.342934 653.772339 107 76 91
86.349892 41.030605 653.751831 93 65 77
86.316223 39.718277 653.731384 106 79 86
49.065819 10.686091 658.946472 96 63 82
49.030586 9.313008 658.925049 81 48 65
48.995361 7.939925 658.903687 73 41 52
51.044735 6.511464 658.557556 70 42 39
51.009594 5.141852 658.536194 65 41 29
48.889656 3.820695 658.839478 64 43 26
44.684704 2.537516 659.467224 60 42 22
44.649288 1.157470 659.445740 61 42 25
42.528828 -0.184518 659.748657 63 44 27
41.450748 -1.550763 659.889282 63 47 24
39.329979 -2.904902 660.192017 64 50 23
39.294353 -4.293628 660.170410 68 58 23
37.173321 -5.658183 660.473022 74 66 30
35.052086 -7.029719 660.775452 81 74 45
32.930687 -8.408161 661.077820 84 76 55
32.894798 -9.807302 661.056030 77 67 58
32.858887 -11.206405 661.034241 60 46 43
13.648663 119.575470 665.198059 43 14 6
11.532467 118.462692 665.501465 40 5 0
11.495537 117.023643 665.479065 42 5 0
13.538157 115.268745 665.130920 41 2 0
13.501306 113.833145 665.108582 42 1 0
15.544188 112.088661 664.760620 47 8 1
17.587204 110.351128 664.412720 50 16 6
21.710316 108.318573 663.739502 57 28 14
23.753824 106.598396 663.391968 58 37 16
25.797493 104.885155 663.044495 55 39 16
25.761189 103.470413 663.022400 54 42 20
26.764999 101.911629 662.837769 58 47 29
26.728746 100.498619 662.815735 60 46 33
28.772905 98.804474 662.468567 61 42 35
30.817249 97.117287 662.121521 63 39 39
32.861774 95.437027 661.774536 65 41 37
34.906460 93.763718 661.427673 60 44 28
39.032101 91.830109 660.755981 54 42 20
41.077251 90.174133 660.409424 48 35 19
43.122540 88.525131 660.062927 50 36 25
44.127522 87.011482 659.878967 58 43 38
44.092026 85.627975 659.857422 63 45 41
44.056530 84.244484 659.835876 60 43 33
44.021034 82.860985 659.814270 56 38 34
46.066940 81.234543 659.468201 88 68 79
46.031525 79.854515 659.446655 97 77 89
50.159264 78.002495 658.776306 102 83 87
52.205685 76.396873 658.430481 103 83 84
52.170540 75.027267 658.409119 105 85 86
57.340015 73.093689 657.577087 109 89 90
59.387009 71.510658 657.231628 114 94 95
61.434208 69.934547 656.886292 119 100 93
61.399452 68.580544 656.865173 112 94 70
57.200325 67.649940 657.492249 105 86 56
62.371120 65.768456 656.660950 95 73 52
62.336418 64.416199 656.639893 105 78 71
69.555962 61.019360 655.464233 112 81 96
71.604233 59.484924 655.119568 88 60 74
73.652672 57.957424 654.775024 59 29 37
73.618446 56.624268 654.754211 49 18 13
74.625702 55.199146 654.571655 67 33 21
74.591537 53.867722 654.550903 82 39 32
48.397667 9.348239 657.706421 73 40 59
48.362431 7.975156 657.684998 65 33 44
50.413403 6.546606 657.341980 59 31 28
50.378258 5.176994 657.320618 51 28 14
48.256752 3.855925 657.620850 50 30 6
44.048565 2.572926 658.242371 48 30 6
44.013145 1.192880 658.220886 51 32 17
41.891083 -0.149019 658.520691 55 36 22
40.812210 -1.515219 658.659790 53 34 19
38.689857 -2.869269 658.959534 52 36 13
38.654228 -4.257996 658.937866 61 48 14
32.285770 -8.372261 659.836060 82 71 53
32.249855 -9.771402 659.814270 72 58 57
13.023714 121.047890 663.946228 42 20 7
12.986887 119.612305 663.923828 48 13 7
12.950061 118.176735 663.901489 46 5 1
12.913209 116.741158 663.879089 47 3 2
12.876383 115.305588 663.856750 46 2 3
12.839557 113.869980 663.834351 49 5 6
14.884019 112.125412 663.489502 53 11 12
16.928663 110.387787 663.144714 53 15 14
21.054968 108.355049 662.477661 56 25 20
23.100061 106.634781 662.133179 57 32 25
25.145332 104.921455 661.788757 56 36 27
25.109028 103.506714 661.766724 57 40 30
26.113655 101.947884 661.583618 59 42 35
26.077402 100.534882 661.561584 57 37 36
28.123146 98.840645 661.217468 57 32 36
30.169096 97.153366 660.873474 63 33 41
34.297409 95.198746 660.207642 68 42 45
36.343800 93.528816 659.863953 58 40 28
38.390354 91.865837 659.520325 61 46 27
40.437084 90.209770 659.176819 61 46 27
42.484001 88.560669 658.833435 73 57 42
43.489780 87.046982 658.651001 92 75 67
43.454285 85.663475 658.629456 97 78 72
43.418785 84.279984 658.607910 100 82 72
43.383289 82.896484 658.586365 116 96 89
43.347794 81.512978 658.564758 128 106 109
45.395359 79.889931 658.221802 133 108 114
45.359970 78.509895 658.200317 128 104 104
58.726437 70.188019 656.005615 117 92 88
58.691605 68.830544 655.984436 111 93 71
56.572990 67.684868 656.284302 100 82 58
56.538067 66.323936 656.263123 91 68 54
49.782063 6.581749 656.126343 43 20 12
49.746929 5.212137 656.104980 35 14 0
47.623779 3.891158 656.402100 35 15 0
43.412426 2.608337 657.017517 34 13 0
43.377010 1.228290 656.995972 38 16 5
41.253338 -0.113519 657.292725 45 22 16
40.173672 -1.479675 657.430298 47 25 12
40.138126 -2.864890 657.408752 45 27 3
12.362003 121.084724 662.672119 46 19 8
12.325151 119.649139 662.649719 52 12 12
12.288324 118.213570 662.627319 49 3 6
12.251498 116.777992 662.604980 47 1 4
12.214646 115.342422 662.582581 46 0 3
14.260615 113.594261 662.240723 54 8 11
14.223894 112.162155 662.218445 56 14 16
20.436125 109.813217 661.238037 50 11 12
22.482719 108.089386 660.896545 49 18 16
24.529497 106.372498 660.555176 60 32 29
24.493193 104.957756 660.533142 59 35 33
25.498585 103.397156 660.351501 57 38 34
25.462332 101.984138 660.329468 54 34 33
27.509602 100.286346 659.988403 52 28 28
27.473427 98.876808 659.966492 53 27 30
29.520962 97.189445 659.625549 64 33 38
33.652485 95.234642 658.965881 74 43 48
35.700466 93.564629 658.625244 87 66 63
41.916561 91.366707 657.647156 95 76 69
41.881012 89.981445 657.625549 97 79 67
42.887550 88.465981 657.444641 102 84 72
42.852055 87.082474 657.423096 110 91 85
42.816559 85.698975 657.401550 107 86 83
42.781059 84.315483 657.380005 111 91 84
42.745564 82.931976 657.358398 132 108 104
42.710068 81.548477 657.336853 136 110 113
42.674572 80.164986 657.315308 136 107 111
58.100727 70.222847 654.800842 118 87 95
58.065895 68.865379 654.779663 100 81 75
58.031067 67.507912 654.758545 90 73 63
9.653238 122.890602 661.737061 47 26 5
9.616307 121.451553 661.714661 48 20 9
9.579377 120.012505 661.692200 51 8 17
9.542446 118.573463 661.669800 52 1 18
11.589741 116.814827 661.330811 51 1 13
11.552915 115.379257 661.308472 48 0 7
13.600513 113.631004 660.969727 53 7 10
13.563765 112.198898 660.947388 56 14 16
19.780794 109.849693 659.976196 56 17 18
21.828995 108.125778 659.637817 60 29 27
23.877380 106.408798 659.299500 61 33 32
24.883509 104.846413 659.119446 63 39 39
24.847258 103.433411 659.097412 66 45 44
24.811005 102.020393 659.075378 70 49 46
26.859859 100.322517 658.737366 78 53 48
26.823711 98.912979 658.715454 90 63 54
28.872826 97.225525 658.377625 105 75 64
33.007542 95.270546 657.724060 113 84 80
37.142620 93.329445 657.070801 105 77 91
41.278042 91.402245 656.417725 106 82 98
41.242496 90.016991 656.396118 109 87 90
42.249825 88.501480 656.216736 107 82 85
42.214329 87.117973 656.195190 99 73 82
42.178833 85.734474 656.173645 96 69 76
42.143333 84.350983 656.152039 96 70 73
42.107838 82.967476 656.130493 100 71 73
42.072342 81.583977 656.108948 101 70 75
57.474995 70.257683 653.596008 66 30 58
57.440166 68.900208 653.574829 62 40 61
57.405334 67.542747 653.553711 70 52 64
8.989857 122.927528 660.459778 45 25 1
8.952926 121.488480 660.437317 48 20 6
8.916021 120.049431 660.414917 49 8 12
10.964861 118.287239 660.079041 55 8 18
10.928008 116.851662 660.056641 56 10 13
10.891182 115.416092 660.034302 49 5 2
10.854330 113.980492 660.011902 48 10 0
12.903596 112.235649 659.676270 57 21 7
19.125423 109.886177 658.714294 63 34 18
23.261524 107.859856 658.065857 81 55 40
24.268396 106.295685 657.887268 83 61 50
24.232143 104.882675 657.865234 86 66 59
26.282448 103.177765 657.530273 89 70 64
26.246275 101.768219 657.508301 91 72 66
26.210100 100.358681 657.486328 100 77 71
26.173952 98.949142 657.464355 109 85 75
26.137777 97.539619 657.442383 118 90 78
32.362606 95.306450 656.482239 120 90 88
36.500874 93.365173 655.835144 113 84 106
40.639484 91.437790 655.188171 107 78 108
40.603935 90.052536 655.166626 110 83 102
41.612080 88.536980 654.988770 104 77 92
41.576584 87.153473 654.967224 90 63 78
41.541088 85.769974 654.945679 91 65 78
41.505592 84.386482 654.924133 89 62 67
56.849255 70.292511 652.391174 57 22 54
56.814426 68.935036 652.369995 61 38 66
8.326539 122.964455 659.182556 47 25 2
8.252678 120.086357 659.137695 48 15 0
8.215748 118.647316 659.115295 52 16 0
10.266276 116.888496 658.782532 53 19 0
10.229450 115.452927 658.760132 61 31 0
10.192598 114.017326 658.737793 82 57 16
10.155771 112.581741 658.715393 106 85 40
18.470093 109.922653 657.452515 112 95 51
22.609385 107.896156 656.810242 106 93 51
23.617073 106.331947 656.633179 107 94 62
23.580822 104.918930 656.611145 106 94 70
25.632706 103.213928 656.279236 101 88 72
25.596558 101.804382 656.257263 92 78 69
25.560385 100.394852 656.235291 95 76 72
25.524210 98.985313 656.213318 105 84 83
25.488035 97.575783 656.191345 114 90 88
39.965420 90.088081 653.937134 107 80 111
39.929871 88.702843 653.915588 102 76 103
7.626248 121.562332 657.882874 47 22 0
7.589318 120.123283 657.860413 57 29 5
7.552413 118.684235 657.838013 60 30 2
9.604523 116.925331 657.508362 61 35 0
9.567697 115.489761 657.485962 69 46 4
9.530845 114.054161 657.463562 79 61 11
9.494018 112.618584 657.441223 93 77 25
9.457191 111.183014 657.418823 100 89 35
6.962931 121.599251 656.605652 50 24 9
6.926001 120.160202 656.583191 70 42 21
6.889070 118.721161 656.560791 61 33 9
8.942791 116.962166 656.234192 56 30 3
8.905938 115.526596 656.211792 61 38 7
8.869112 114.090996 656.189453 68 48 13
-46.304733 69.304810 716.606995 71 39 44
-46.156895 66.816628 714.683167 71 39 44
-46.131645 67.350189 713.243835 70 38 43
-44.644569 62.646400 720.125122 66 40 15
-44.619381 63.178738 718.689087 70 41 33
-44.672504 65.724297 717.579346 68 36 39
-44.647259 66.257843 716.140076 67 34 41
-44.543812 64.775764 714.380981 67 34 43
-44.518623 65.308105 712.944946 67 34 45
-44.493435 65.840446 711.508911 66 30 40
-44.468246 66.372772 710.072876 64 29 35
-44.443058 66.905106 708.636841 64 30 31
-43.665958 63.152393 687.095886 45 20 15
-43.641083 63.678074 685.677795 37 13 13
-43.591335 64.729469 682.841553 16 0 8
-43.566460 65.255196 681.423401 21 5 8
-43.541584 65.780884 680.005249 24 11 0
-43.516708 66.306595 678.587158 25 13 0
-43.491837 66.832283 677.169006 30 18 0
-43.466961 67.357994 675.750854 36 20 7
-43.442085 67.883675 674.332764 38 19 15
-43.340611 66.359962 672.686035 38 18 19
-43.315792 66.884460 671.271118 30 17 11
-43.214485 65.357101 669.634216 29 15 12
-43.189724 65.880386 668.222595 34 15 21
-43.164963 66.403664 666.810974 27 2 6
-43.140205 66.926949 665.399353 38 11 4
-43.039185 65.393570 663.778687 40 12 0
-43.090683 67.973534 662.576111 43 13 3
-43.065922 68.496811 661.164490 40 10 2
-43.475883 71.131798 723.091125 62 35 24
-43.375477 69.658844 721.307556 65 37 23
-43.275188 68.183434 719.530579 68 39 35
-43.137592 65.699051 717.596924 65 35 37
-43.224525 69.254135 716.642212 63 32 38
-43.087101 66.766151 714.718323 63 31 44
-43.061855 67.299690 713.278992 64 31 48
-42.961994 65.815239 711.526428 64 30 47
-42.862247 64.328392 709.780334 63 29 43
-42.837116 64.859520 708.347534 62 29 38
-42.811985 65.390648 706.914795 61 29 32
-42.712463 63.898972 705.181702 60 30 28
-42.687389 64.428902 703.752197 61 32 26
-42.550907 61.920967 701.882080 59 30 24
-42.637241 65.488739 700.893127 52 24 20
-42.612167 66.018661 699.463623 49 21 18
-42.661194 68.577454 698.318054 50 24 25
-42.636063 69.108582 696.885315 52 26 29
-42.610931 69.639717 695.452515 54 28 31
-42.350994 66.145905 690.484863 60 38 17
-42.252251 64.637909 688.795776 59 36 22
-42.153622 63.127518 687.113220 59 35 25
-42.128746 63.653198 685.695129 54 30 26
-42.030281 62.139198 684.022278 47 27 26
-42.078995 64.704597 682.858826 54 35 39
-42.054123 65.230316 681.440674 54 39 36
-42.029247 65.756004 680.022583 50 39 17
-42.004372 66.281715 678.604431 43 34 5
-41.979496 66.807411 677.186340 38 27 7
-41.954620 67.333115 675.768188 35 23 11
-41.929749 67.858795 674.350098 32 16 16
-41.831741 66.335136 672.703308 30 16 15
-41.806923 66.859634 671.288391 29 20 5
-41.709091 65.332329 669.651428 25 15 3
-41.684330 65.855637 668.239807 28 11 17
-41.586670 64.324707 666.612610 34 11 19
-41.561966 64.846786 665.204224 58 33 29
-41.537262 65.368843 663.795898 66 38 26
-41.512558 65.890945 662.387512 64 35 21
-41.487854 66.413010 660.979187 53 23 13
-42.235615 73.426140 731.243286 66 38 26
-42.210026 73.966904 729.784485 68 39 43
-41.908051 68.023750 725.667542 67 38 58
-41.882660 68.560303 724.220093 64 33 49
-41.857273 69.096878 722.772705 61 32 34
-41.831882 69.633438 721.325195 62 34 30
-41.556499 63.128361 718.724182 66 38 37
-41.602680 65.673798 717.614502 65 36 40
-41.506123 64.193031 715.852112 63 33 41
-41.480934 64.725388 714.416016 65 33 46
-41.455742 65.257729 712.979980 66 33 50
-41.430553 65.790070 711.543945 66 33 50
-41.334286 64.303261 709.797791 65 33 48
-41.309155 64.834396 708.365051 64 32 43
-41.284019 65.365524 706.932251 63 32 38
-41.258888 65.896667 705.499451 63 33 35
-41.233757 66.427803 704.066650 65 35 33
-41.137825 64.933754 702.340149 65 35 33
-41.183495 67.490059 701.201111 60 32 31
-41.158363 68.021194 699.768372 59 30 32
-41.133228 68.552330 698.335571 61 34 39
-41.108097 69.083435 696.902832 62 35 42
-41.012451 67.583374 695.192505 63 36 41
-40.987377 68.113297 693.762939 67 41 40
-40.856705 65.592789 691.926941 67 44 30
-40.761375 64.086067 690.234558 67 44 26
-40.736443 64.612961 688.813171 70 46 34
-40.711510 65.139877 687.391785 73 48 41
-40.616405 63.628323 685.712402 69 46 40
-40.591530 64.154037 684.294250 65 44 41
-40.566654 64.679726 682.876160 69 51 51
-40.541779 65.205444 681.458008 64 49 44
-40.516903 65.731133 680.039856 53 46 20
-40.422146 64.212349 678.380066 47 40 11
-40.467155 66.782532 677.203613 45 39 17
-40.372509 65.261345 675.550293 44 36 23
-40.347691 65.785835 674.135437 41 30 28
-40.253216 64.261017 672.491882 37 28 23
-40.228455 64.784302 671.080261 36 31 12
-40.203697 65.307579 669.668640 33 26 10
-40.109451 63.777924 668.038147 32 16 19
-40.084751 64.300011 666.629761 32 11 18
-39.955986 61.739059 664.902832 51 27 25
-39.931370 62.259308 663.499390 60 33 24
-40.010639 65.866241 662.404663 69 42 25
-39.985935 66.388306 660.996338 66 37 23
-40.979034 70.525955 744.772339 41 18 4
-40.953388 71.067932 743.310303 43 20 2
-40.764698 68.159645 739.642151 56 28 14
-40.739166 68.699234 738.186523 59 29 18
-40.713634 69.238800 736.730957 61 29 18
-40.756634 71.778152 735.637634 62 30 15
-40.662571 70.317978 733.819763 63 35 14
-40.637039 70.857544 732.364258 63 37 12
-40.611507 71.397133 730.908630 60 35 13
-40.483532 68.929832 728.929260 58 34 24
-40.458088 69.467590 727.478577 61 35 38
-40.364456 67.998352 725.685242 62 34 48
-40.270943 66.526703 723.898376 61 32 50
-40.245609 67.062057 722.454163 59 31 43
-40.220280 67.597427 721.010010 60 33 42
-40.093014 65.115013 719.071350 60 33 38
-39.999874 63.635529 717.305603 61 34 39
-39.974686 64.167854 715.869629 61 34 41
-39.949497 64.700188 714.433533 65 35 47
-39.924309 65.232529 712.997498 66 35 50
-39.899120 65.764870 711.561462 68 38 50
-39.873932 66.297226 710.125427 67 37 47
-39.848743 66.829552 708.689392 68 37 43
-39.756054 65.340401 706.949768 67 37 39
-39.730923 65.871513 705.516968 67 37 35
-39.705788 66.402672 704.084167 68 40 37
-39.680656 66.933769 702.651428 68 40 37
-39.655525 67.464935 701.218628 67 38 40
-39.563183 65.968513 699.498535 69 40 44
-39.538109 66.498451 698.068970 72 42 50
-39.513035 67.028351 696.639465 71 44 51
-39.387398 64.511559 694.793579 69 44 48
-39.362408 65.039673 693.368958 71 47 43
