-0.0000 , 0.0000 , 0.0000
-0.0000 , 0.0000 , 0.0000
-418.8423 , 26.8489 , 773.0000
-415.6190 , 26.8141 , 772.0000
-412.9376 , 26.8141 , 772.0000
-410.2562 , 26.8141 , 772.0000
-407.5748 , 26.8141 , 772.0000
-403.8445 , 26.7447 , 770.0000
-401.1700 , 26.7447 , 770.0000
-397.4604 , 26.6752 , 768.0000
-394.7930 , 26.6752 , 768.0000
-392.1254 , 26.6752 , 768.0000
-387.9366 , 26.5710 , 765.0000
-385.2795 , 26.5710 , 765.0000
-381.6221 , 26.5015 , 763.0000
-379.9653 , 26.5710 , 765.0000
-377.3082 , 26.5710 , 765.0000
-374.6511 , 26.5710 , 765.0000
-371.9940 , 26.5710 , 765.0000
-369.3369 , 26.5710 , 765.0000
-366.6798 , 26.5710 , 765.0000
-364.0227 , 26.5710 , 765.0000
-361.3656 , 26.5710 , 765.0000
-358.7085 , 26.5710 , 765.0000
-356.0514 , 26.5710 , 765.0000
-353.3943 , 26.5710 , 765.0000
-350.7372 , 26.5710 , 765.0000
-348.0801 , 26.5710 , 765.0000
-345.4230 , 26.5710 , 765.0000
-342.7659 , 26.5710 , 765.0000
-340.1088 , 26.5710 , 765.0000
-337.4517 , 26.5710 , 765.0000
-334.7946 , 26.5710 , 765.0000
-332.1375 , 26.5710 , 765.0000
-330.3418 , 26.6405 , 767.0000
-327.6777 , 26.6405 , 767.0000
-324.1662 , 26.5710 , 765.0000
-321.5091 , 26.5710 , 765.0000
-319.6856 , 26.6405 , 767.0000
-317.0215 , 26.6405 , 767.0000
-314.3575 , 26.6405 , 767.0000
-311.6935 , 26.6405 , 767.0000
-309.0294 , 26.6405 , 767.0000
-305.5665 , 26.5710 , 765.0000
-302.9094 , 26.5710 , 765.0000
-300.2523 , 26.5710 , 765.0000
-298.7622 , 26.6752 , 768.0000
-296.8658 , 26.7447 , 770.0000
-293.4272 , 26.6752 , 768.0000
-290.7597 , 26.6752 , 768.0000
-288.0921 , 26.6752 , 768.0000
-285.4246 , 26.6752 , 768.0000
-282.7571 , 26.6752 , 768.0000
-280.8190 , 26.7447 , 770.0000
-277.4221 , 26.6752 , 768.0000
-274.7545 , 26.6752 , 768.0000
-272.0870 , 26.6752 , 768.0000
-269.4195 , 26.6752 , 768.0000
-266.7520 , 26.6752 , 768.0000
-264.7722 , 26.7447 , 770.0000
-262.0977 , 26.7447 , 770.0000
-257.7387 , 26.5710 , 765.0000
-255.0816 , 26.5710 , 765.0000
-253.0844 , 26.6405 , 767.0000
-250.7469 , 26.6752 , 768.0000
-248.7254 , 26.7447 , 770.0000
-245.4118 , 26.6752 , 768.0000
-242.7443 , 26.6752 , 768.0000
-240.0768 , 26.6752 , 768.0000
-237.1001 , 26.6405 , 767.0000
-234.4361 , 26.6405 , 767.0000
-231.7720 , 26.6405 , 767.0000
-228.5106 , 26.5710 , 765.0000
-225.8535 , 26.5710 , 765.0000
-223.1964 , 26.5710 , 765.0000
-220.5393 , 26.5710 , 765.0000
-218.4518 , 26.6405 , 767.0000
-215.7878 , 26.6405 , 767.0000
-213.1237 , 26.6405 , 767.0000
-210.4597 , 26.6405 , 767.0000
-207.2538 , 26.5710 , 765.0000
-204.5967 , 26.5710 , 765.0000
-201.9396 , 26.5710 , 765.0000
-199.2825 , 26.5710 , 765.0000
-196.6254 , 26.5710 , 765.0000
-193.9683 , 26.5710 , 765.0000
-191.3112 , 26.5710 , 765.0000
-188.6541 , 26.5710 , 765.0000
-185.9970 , 26.5710 , 765.0000
-183.3399 , 26.5710 , 765.0000
-180.6828 , 26.5710 , 765.0000
-178.0257 , 26.5710 , 765.0000
-175.3686 , 26.5710 , 765.0000
-172.7115 , 26.5710 , 765.0000
-170.0544 , 26.5710 , 765.0000
-167.3973 , 26.5710 , 765.0000
-164.7402 , 26.5710 , 765.0000
-162.0831 , 26.5710 , 765.0000
-159.0092 , 26.5015 , 763.0000
-156.3590 , 26.5015 , 763.0000
-153.7089 , 26.5015 , 763.0000
-150.6628 , 26.4321 , 761.0000
-147.4360 , 26.3279 , 758.0000
-144.2302 , 26.2237 , 755.0000
-141.0451 , 26.1195 , 752.0000
-138.4332 , 26.1195 , 752.0000
-135.4600 , 26.0500 , 750.0000
-132.8550 , 26.0500 , 750.0000
-130.2500 , 26.0500 , 750.0000
-127.9854 , 26.1195 , 752.0000
-125.8736 , 26.2237 , 755.0000
-124.0675 , 26.3973 , 760.0000
-121.5875 , 26.4321 , 761.0000
-118.9443 , 26.4321 , 761.0000
-116.1483 , 26.3973 , 760.0000
-113.5085 , 26.3973 , 760.0000
-110.8688 , 26.3973 , 760.0000
-108.3715 , 26.4321 , 761.0000
-105.5893 , 26.3973 , 760.0000
-102.9496 , 26.3973 , 760.0000
-100.0459 , 26.3279 , 758.0000
-97.4131 , 26.3279 , 758.0000
-94.7803 , 26.3279 , 758.0000
-92.3907 , 26.3973 , 760.0000
-89.8690 , 26.4321 , 761.0000
-87.4551 , 26.5015 , 763.0000
-84.8049 , 26.5015 , 763.0000
-81.9394 , 26.4321 , 761.0000
-79.1920 , 26.3973 , 760.0000
-76.5523 , 26.3973 , 760.0000
-73.9125 , 26.3973 , 760.0000
-71.2728 , 26.3973 , 760.0000
-68.4524 , 26.3279 , 758.0000
-65.6460 , 26.2584 , 756.0000
-0.0000 , 0.0000 , 0.0000
-52.4057 , 22.7851 , 656.0000
-50.1271 , 22.7851 , 656.0000
-47.7757 , 22.7503 , 655.0000
-45.2923 , 22.6461 , 652.0000
-42.9617 , 22.6114 , 651.0000
-40.6380 , 22.5767 , 650.0000
-38.2622 , 22.5072 , 648.0000
-35.9559 , 22.4725 , 647.0000
-33.6566 , 22.4377 , 646.0000
-31.3642 , 22.4030 , 645.0000
-29.1239 , 22.4030 , 645.0000
-26.8836 , 22.4030 , 645.0000
-24.5287 , 22.2988 , 642.0000
-22.2988 , 22.2988 , 642.0000
-20.0377 , 22.2641 , 641.0000
-17.8113 , 22.2641 , 641.0000
-15.5605 , 22.2293 , 640.0000
-13.2959 , 22.1599 , 638.0000
-11.0278 , 22.0557 , 635.0000
-8.8223 , 22.0557 , 635.0000
-6.6167 , 22.0557 , 635.0000
-4.4111 , 22.0557 , 635.0000
-2.2056 , 22.0557 , 635.0000
0.0000 , 22.0209 , 634.0000
2.1986 , 21.9862 , 633.0000
4.3973 , 21.9862 , 633.0000
6.5750 , 21.9167 , 631.0000
8.7667 , 21.9167 , 631.0000
10.9063 , 21.8125 , 628.0000
13.0875 , 21.8125 , 628.0000
15.2688 , 21.8125 , 628.0000
17.3667 , 21.7083 , 625.0000
19.5375 , 21.7083 , 625.0000
21.7083 , 21.7083 , 625.0000
23.8792 , 21.7083 , 625.0000
26.0083 , 21.6736 , 624.0000
27.9951 , 21.5347 , 620.0000
30.2458 , 21.6041 , 622.0000
32.4062 , 21.6041 , 622.0000
34.5666 , 21.6041 , 622.0000
36.6089 , 21.5347 , 620.0000
38.6374 , 21.4652 , 618.0000
40.7839 , 21.4652 , 618.0000
42.8609 , 21.4305 , 617.0000
45.0040 , 21.4305 , 617.0000
47.2235 , 21.4652 , 618.0000
49.4499 , 21.4999 , 619.0000
51.9333 , 21.6389 , 623.0000
54.5313 , 21.8125 , 628.0000
56.7126 , 21.8125 , 628.0000
58.8939 , 21.8125 , 628.0000
0.0000 , 0.0000 , 0.0000
0.0000 , 0.0000 , 0.0000
0.0000 , 0.0000 , 0.0000
0.0000 , 0.0000 , 0.0000
83.9157 , 26.2237 , 755.0000
86.5381 , 26.2237 , 755.0000
89.2785 , 26.2584 , 756.0000
91.9044 , 26.2584 , 756.0000
94.7803 , 26.3279 , 758.0000
97.1561 , 26.2584 , 756.0000
99.7820 , 26.2584 , 756.0000
102.4077 , 26.2584 , 756.0000
105.0336 , 26.2584 , 756.0000
107.6594 , 26.2584 , 756.0000
110.2853 , 26.2584 , 756.0000
113.2099 , 26.3279 , 758.0000
115.5369 , 26.2584 , 756.0000
118.4754 , 26.3279 , 758.0000
120.7887 , 26.2584 , 756.0000
123.4145 , 26.2584 , 756.0000
126.0403 , 26.2584 , 756.0000
129.0065 , 26.3279 , 758.0000
131.6393 , 26.3279 , 758.0000
134.2721 , 26.3279 , 758.0000
136.9049 , 26.3279 , 758.0000
139.1695 , 26.2584 , 756.0000
142.5456 , 26.3973 , 760.0000
146.1405 , 26.5710 , 765.0000
0.0000 , 0.0000 , 0.0000
0.0000 , 0.0000 , 0.0000
0.0000 , 0.0000 , 0.0000
0.0000 , 0.0000 , 0.0000
0.0000 , 0.0000 , 0.0000
0.0000 , 0.0000 , 0.0000
174.8615 , 28.2035 , 812.0000
177.2442 , 28.1340 , 810.0000
180.5022 , 28.2035 , 812.0000
182.8710 , 28.1340 , 810.0000
185.2259 , 28.0645 , 808.0000
187.5670 , 27.9951 , 806.0000
189.8941 , 27.9256 , 804.0000
192.6866 , 27.9256 , 804.0000
194.9929 , 27.8561 , 802.0000
196.7921 , 27.7172 , 798.0000
199.5639 , 27.7172 , 798.0000
202.0820 , 27.6825 , 797.0000
204.8502 , 27.6825 , 797.0000
207.6185 , 27.6825 , 797.0000
209.8588 , 27.6130 , 795.0000
212.0852 , 27.5435 , 793.0000
214.8396 , 27.5435 , 793.0000
216.4963 , 27.4046 , 789.0000
218.4032 , 27.3004 , 786.0000
221.1332 , 27.3004 , 786.0000
223.2937 , 27.2309 , 784.0000
225.4402 , 27.1615 , 782.0000
227.5728 , 27.0920 , 780.0000
230.2820 , 27.0920 , 780.0000
232.9912 , 27.0920 , 780.0000
234.7939 , 26.9878 , 777.0000
236.8814 , 26.9183 , 775.0000
238.9549 , 26.8489 , 773.0000
241.3272 , 26.8141 , 772.0000
243.3765 , 26.7447 , 770.0000
246.6900 , 26.8141 , 772.0000
248.7254 , 26.7447 , 770.0000
251.3999 , 26.7447 , 770.0000
253.4144 , 26.6752 , 768.0000
256.7488 , 26.7447 , 770.0000
259.4233 , 26.7447 , 770.0000
266.8632 , 27.2309 , 784.0000
270.2740 , 27.3004 , 786.0000
273.6987 , 27.3699 , 788.0000
0.0000 , 0.0000 , 0.0000
0.0000 , 0.0000 , 0.0000
275.4701 , 26.7447 , 770.0000
277.4221 , 26.6752 , 768.0000
280.0896 , 26.6752 , 768.0000
282.3889 , 26.6405 , 767.0000
283.5664 , 26.5015 , 763.0000
285.4663 , 26.4321 , 761.0000
288.1095 , 26.4321 , 761.0000
290.3707 , 26.3973 , 760.0000
293.0104 , 26.3973 , 760.0000
296.0392 , 26.4321 , 761.0000
0.0000 , 0.0000 , 0.0000
0.0000 , 0.0000 , 0.0000
0.0000 , 0.0000 , 0.0000
0.0000 , 0.0000 , 0.0000
0.0000 , 0.0000 , 0.0000
0.0000 , 0.0000 , 0.0000
0.0000 , 0.0000 , 0.0000
0.0000 , 0.0000 , 0.0000
0.0000 , 0.0000 , 0.0000
0.0000 , 0.0000 , 0.0000
0.0000 , 0.0000 , 0.0000
0.0000 , 0.0000 , 0.0000
0.0000 , 0.0000 , 0.0000
243.7655 , 19.3465 , 557.0000
245.7001 , 19.3465 , 557.0000
246.7456 , 19.2770 , 555.0000
247.7772 , 19.2075 , 553.0000
247.8918 , 19.0686 , 549.0000
249.3437 , 19.0339 , 548.0000
250.7886 , 18.9991 , 547.0000
252.2265 , 18.9644 , 546.0000
0.0000 , 0.0000 , 0.0000
0.0000 , 0.0000 , 0.0000
0.0000 , 0.0000 , 0.0000
0.0000 , 0.0000 , 0.0000
0.0000 , 0.0000 , 0.0000
0.0000 , 0.0000 , 0.0000
0.0000 , 0.0000 , 0.0000
0.0000 , 0.0000 , 0.0000
0.0000 , 0.0000 , 0.0000
0.0000 , 0.0000 , 0.0000
0.0000 , 0.0000 , 0.0000
0.0000 , 0.0000 , 0.0000
0.0000 , 0.0000 , 0.0000
0.0000 , 0.0000 , 0.0000
0.0000 , 0.0000 , 0.0000
0.0000 , 0.0000 , 0.0000
0.0000 , 0.0000 , 0.0000
0.0000 , 0.0000 , 0.0000
0.0000 , 0.0000 , 0.0000
0.0000 , 0.0000 , 0.0000
0.0000 , 0.0000 , 0.0000
0.0000 , 0.0000 , 0.0000
0.0000 , 0.0000 , 0.0000
0.0000 , 0.0000 , 0.0000
0.0000 , 0.0000 , 0.0000
0.0000 , 0.0000 , 0.0000
-0.0000 , 0.0000 , 0.0000
-0.0000 , 0.0000 , 0.0000
-0.0000 , 0.0000 , 0.0000
-421.5272 , 24.1640 , 773.0000
-418.3005 , 24.1327 , 772.0000
-415.6190 , 24.1327 , 772.0000
-411.8679 , 24.0702 , 770.0000
-409.1934 , 24.0702 , 770.0000
-406.5189 , 24.0702 , 770.0000
-402.7955 , 24.0077 , 768.0000
-399.6070 , 23.9764 , 767.0000
-396.9429 , 23.9764 , 767.0000
-394.7930 , 24.0077 , 768.0000
-391.6148 , 23.9764 , 767.0000
-387.9366 , 23.9139 , 765.0000
-384.2722 , 23.8514 , 763.0000
-381.6221 , 23.8514 , 763.0000
-379.9653 , 23.9139 , 765.0000
-376.3217 , 23.8514 , 763.0000
-373.6716 , 23.8514 , 763.0000
-371.9940 , 23.9139 , 765.0000
-369.3369 , 23.9139 , 765.0000
-366.6798 , 23.9139 , 765.0000
-364.0227 , 23.9139 , 765.0000
-361.3656 , 23.9139 , 765.0000
-358.7085 , 23.9139 , 765.0000
-356.0514 , 23.9139 , 765.0000
-353.3943 , 23.9139 , 765.0000
-350.7372 , 23.9139 , 765.0000
-348.0801 , 23.9139 , 765.0000
-345.4230 , 23.9139 , 765.0000
-342.7659 , 23.9139 , 765.0000
-340.1088 , 23.9139 , 765.0000
-338.3339 , 23.9764 , 767.0000
-334.7946 , 23.9139 , 765.0000
-332.1375 , 23.9139 , 765.0000
-329.4804 , 23.9139 , 765.0000
-326.8233 , 23.9139 , 765.0000
-325.0137 , 23.9764 , 767.0000
-322.3496 , 23.9764 , 767.0000
-320.1024 , 24.0077 , 768.0000
-317.4349 , 24.0077 , 768.0000
-314.7673 , 24.0077 , 768.0000
-311.6935 , 23.9764 , 767.0000
-309.0294 , 23.9764 , 767.0000
-306.3654 , 23.9764 , 767.0000
-302.9094 , 23.9139 , 765.0000
-301.0373 , 23.9764 , 767.0000
-299.5403 , 24.0702 , 770.0000
-296.8658 , 24.0702 , 770.0000
-294.1913 , 24.0702 , 770.0000
-290.7597 , 24.0077 , 768.0000
-288.0921 , 24.0077 , 768.0000
-285.4246 , 24.0077 , 768.0000
-282.7571 , 24.0077 , 768.0000
-280.0896 , 24.0077 , 768.0000
-277.0609 , 23.9764 , 767.0000
-274.3968 , 23.9764 , 767.0000
-271.7328 , 23.9764 , 767.0000
-269.4195 , 24.0077 , 768.0000
-266.7520 , 24.0077 , 768.0000
-264.0845 , 24.0077 , 768.0000
-261.0765 , 23.9764 , 767.0000
-257.7387 , 23.9139 , 765.0000
-255.0816 , 23.9139 , 765.0000
-252.4245 , 23.9139 , 765.0000
-250.7469 , 24.0077 , 768.0000
-248.0793 , 24.0077 , 768.0000
-245.4118 , 24.0077 , 768.0000
-243.3765 , 24.0702 , 770.0000
-240.0768 , 24.0077 , 768.0000
-237.4093 , 24.0077 , 768.0000
-234.7417 , 24.0077 , 768.0000
-231.7720 , 23.9764 , 767.0000
-229.1080 , 23.9764 , 767.0000
-225.8535 , 23.9139 , 765.0000
-223.1964 , 23.9139 , 765.0000
-220.5393 , 23.9139 , 765.0000
-218.4518 , 23.9764 , 767.0000
-215.7878 , 23.9764 , 767.0000
-213.1237 , 23.9764 , 767.0000
-210.4597 , 23.9764 , 767.0000
-207.2538 , 23.9139 , 765.0000
-204.5967 , 23.9139 , 765.0000
-201.9396 , 23.9139 , 765.0000
-199.2825 , 23.9139 , 765.0000
-196.6254 , 23.9139 , 765.0000
-193.9683 , 23.9139 , 765.0000
-191.3112 , 23.9139 , 765.0000
-188.6541 , 23.9139 , 765.0000
-186.4833 , 23.9764 , 767.0000
-183.3399 , 23.9139 , 765.0000
-180.6828 , 23.9139 , 765.0000
-178.0257 , 23.9139 , 765.0000
-174.9101 , 23.8514 , 763.0000
-172.7115 , 23.9139 , 765.0000
-170.0544 , 23.9139 , 765.0000
-167.3973 , 23.9139 , 765.0000
-164.7402 , 23.9139 , 765.0000
-162.0831 , 23.9139 , 765.0000
-159.4260 , 23.9139 , 765.0000
-156.3590 , 23.8514 , 763.0000
-153.7089 , 23.8514 , 763.0000
-151.0587 , 23.8514 , 763.0000
-147.8250 , 23.7576 , 760.0000
-144.4212 , 23.6325 , 756.0000
-141.0451 , 23.5075 , 752.0000
-138.4332 , 23.5075 , 752.0000
-135.8212 , 23.5075 , 752.0000
-132.8550 , 23.4450 , 750.0000
-130.2500 , 23.4450 , 750.0000
-127.9854 , 23.5075 , 752.0000
-125.8736 , 23.6013 , 755.0000
-124.2307 , 23.7888 , 761.0000
-121.5875 , 23.7888 , 761.0000
-118.9443 , 23.7888 , 761.0000
-116.3011 , 23.7888 , 761.0000
-113.5085 , 23.7576 , 760.0000
-111.0147 , 23.7888 , 761.0000
-108.2290 , 23.7576 , 760.0000
-105.5893 , 23.7576 , 760.0000
-102.9496 , 23.7576 , 760.0000
-100.3099 , 23.7576 , 760.0000
-97.4131 , 23.6951 , 758.0000
-94.7803 , 23.6951 , 758.0000
-92.3907 , 23.7576 , 760.0000
-89.7509 , 23.7576 , 760.0000
-87.2258 , 23.7888 , 761.0000
-84.5826 , 23.7888 , 761.0000
-81.8317 , 23.7576 , 760.0000
-79.1920 , 23.7576 , 760.0000
-76.5523 , 23.7576 , 760.0000
-73.9125 , 23.7576 , 760.0000
-71.2728 , 23.7576 , 760.0000
-68.4524 , 23.6951 , 758.0000
-65.5592 , 23.6013 , 755.0000
-0.0000 , 0.0000 , 0.0000
-0.0000 , 0.0000 , 0.0000
-50.1271 , 20.5065 , 656.0000
-47.7757 , 20.4753 , 655.0000
-45.2228 , 20.3502 , 651.0000
-42.8957 , 20.3190 , 650.0000
-40.5130 , 20.2565 , 648.0000
-38.2032 , 20.2252 , 647.0000
-35.9004 , 20.1939 , 646.0000
-33.6045 , 20.1627 , 645.0000
-31.3642 , 20.1627 , 645.0000
-29.1239 , 20.1627 , 645.0000
-26.8419 , 20.1314 , 644.0000
-24.4905 , 20.0376 , 641.0000
-22.2641 , 20.0376 , 641.0000
-20.0064 , 20.0064 , 640.0000
-17.7557 , 19.9751 , 639.0000
-15.5362 , 19.9751 , 639.0000
-13.2542 , 19.8813 , 636.0000
-11.0278 , 19.8501 , 635.0000
-8.8223 , 19.8501 , 635.0000
-6.6167 , 19.8501 , 635.0000
-4.4111 , 19.8501 , 635.0000
-2.2021 , 19.8188 , 634.0000
0.0000 , 19.8188 , 634.0000
2.1986 , 19.7876 , 633.0000
4.3903 , 19.7563 , 632.0000
6.5542 , 19.6625 , 629.0000
8.7389 , 19.6625 , 629.0000
10.9063 , 19.6313 , 628.0000
13.0875 , 19.6313 , 628.0000
15.2445 , 19.6000 , 627.0000
17.3667 , 19.5375 , 625.0000
19.5062 , 19.5062 , 624.0000
21.6736 , 19.5062 , 624.0000
23.8410 , 19.5062 , 624.0000
25.9667 , 19.4750 , 623.0000
27.9951 , 19.3812 , 620.0000
30.1485 , 19.3812 , 620.0000
32.2499 , 19.3499 , 619.0000
34.3443 , 19.3187 , 618.0000
36.4909 , 19.3187 , 618.0000
38.5123 , 19.2561 , 616.0000
40.7179 , 19.2874 , 617.0000
42.8609 , 19.2874 , 617.0000
45.1499 , 19.3499 , 619.0000
47.2999 , 19.3499 , 619.0000
49.5298 , 19.3812 , 620.0000
52.0166 , 19.5062 , 624.0000
54.5313 , 19.6313 , 628.0000
56.7126 , 19.6313 , 628.0000
58.8939 , 19.6313 , 628.0000
0.0000 , 0.0000 , 0.0000
0.0000 , 0.0000 , 0.0000
78.6710 , 23.6013 , 755.0000
81.0780 , 23.5388 , 753.0000
83.6935 , 23.5388 , 753.0000
86.5381 , 23.6013 , 755.0000
89.1605 , 23.6013 , 755.0000
91.9044 , 23.6325 , 756.0000
94.7803 , 23.6951 , 758.0000
97.1561 , 23.6325 , 756.0000
99.7820 , 23.6325 , 756.0000
102.4077 , 23.6325 , 756.0000
105.0336 , 23.6325 , 756.0000
107.6594 , 23.6325 , 756.0000
110.5771 , 23.6951 , 758.0000
112.9111 , 23.6325 , 756.0000
115.5369 , 23.6325 , 756.0000
118.1628 , 23.6325 , 756.0000
120.7887 , 23.6325 , 756.0000
123.4145 , 23.6325 , 756.0000
126.0403 , 23.6325 , 756.0000
129.0065 , 23.6951 , 758.0000
131.6393 , 23.6951 , 758.0000
134.2721 , 23.6951 , 758.0000
136.9049 , 23.6951 , 758.0000
139.1695 , 23.6325 , 756.0000
142.1705 , 23.6951 , 758.0000
145.1853 , 23.7576 , 760.0000
0.0000 , 0.0000 , 0.0000
0.0000 , 0.0000 , 0.0000
0.0000 , 0.0000 , 0.0000
0.0000 , 0.0000 , 0.0000
0.0000 , 0.0000 , 0.0000
0.0000 , 0.0000 , 0.0000
175.2922 , 25.4456 , 814.0000
178.1195 , 25.4456 , 814.0000
180.9468 , 25.4456 , 814.0000
183.7741 , 25.4456 , 814.0000
186.1429 , 25.3831 , 812.0000
188.9632 , 25.3831 , 812.0000
190.3665 , 25.1955 , 806.0000
192.6866 , 25.1330 , 804.0000
194.9929 , 25.0705 , 802.0000
197.2853 , 25.0080 , 800.0000
199.5639 , 24.9455 , 798.0000
202.3356 , 24.9455 , 798.0000
204.8502 , 24.9142 , 797.0000
207.6185 , 24.9142 , 797.0000
209.8588 , 24.8517 , 795.0000
212.6201 , 24.8517 , 795.0000
215.3814 , 24.8517 , 795.0000
217.5939 , 24.7892 , 793.0000
219.2368 , 24.6641 , 789.0000
221.9773 , 24.6641 , 789.0000
223.8633 , 24.5703 , 786.0000
226.0168 , 24.5078 , 784.0000
228.7398 , 24.5078 , 784.0000
230.8725 , 24.4453 , 782.0000
232.9912 , 24.3828 , 780.0000
235.3982 , 24.3515 , 779.0000
236.8814 , 24.2265 , 775.0000
238.9549 , 24.1640 , 773.0000
242.2650 , 24.2265 , 775.0000
244.3247 , 24.1640 , 773.0000
247.0096 , 24.1640 , 773.0000
249.3715 , 24.1327 , 772.0000
252.0528 , 24.1327 , 772.0000
254.7343 , 24.1327 , 772.0000
257.7491 , 24.1640 , 773.0000
262.7924 , 24.3828 , 780.0000
266.8632 , 24.5078 , 784.0000
269.5862 , 24.5078 , 784.0000
302.5273 , 27.2274 , 871.0000
306.2542 , 27.2900 , 873.0000
0.0000 , 0.0000 , 0.0000
274.7546 , 24.0077 , 768.0000
277.4221 , 24.0077 , 768.0000
279.7249 , 23.9764 , 767.0000
281.6526 , 23.9139 , 765.0000
283.5664 , 23.8514 , 763.0000
286.2166 , 23.8514 , 763.0000
288.1095 , 23.7888 , 761.0000
290.3707 , 23.7576 , 760.0000
293.0104 , 23.7576 , 760.0000
296.0392 , 23.7888 , 761.0000
0.0000 , 0.0000 , 0.0000
0.0000 , 0.0000 , 0.0000
0.0000 , 0.0000 , 0.0000
0.0000 , 0.0000 , 0.0000
0.0000 , 0.0000 , 0.0000
0.0000 , 0.0000 , 0.0000
0.0000 , 0.0000 , 0.0000
0.0000 , 0.0000 , 0.0000
0.0000 , 0.0000 , 0.0000
0.0000 , 0.0000 , 0.0000
0.0000 , 0.0000 , 0.0000
0.0000 , 0.0000 , 0.0000
0.0000 , 0.0000 , 0.0000
243.7655 , 17.4118 , 557.0000
245.7001 , 17.4118 , 557.0000
246.7456 , 17.3493 , 555.0000
247.7772 , 17.2868 , 553.0000
248.7949 , 17.2242 , 551.0000
249.3437 , 17.1305 , 548.0000
250.7886 , 17.0992 , 547.0000
251.7646 , 17.0367 , 545.0000
0.0000 , 0.0000 , 0.0000
0.0000 , 0.0000 , 0.0000
0.0000 , 0.0000 , 0.0000
0.0000 , 0.0000 , 0.0000
0.0000 , 0.0000 , 0.0000
0.0000 , 0.0000 , 0.0000
0.0000 , 0.0000 , 0.0000
0.0000 , 0.0000 , 0.0000
0.0000 , 0.0000 , 0.0000
0.0000 , 0.0000 , 0.0000
0.0000 , 0.0000 , 0.0000
0.0000 , 0.0000 , 0.0000
0.0000 , 0.0000 , 0.0000
0.0000 , 0.0000 , 0.0000
0.0000 , 0.0000 , 0.0000
0.0000 , 0.0000 , 0.0000
0.0000 , 0.0000 , 0.0000
0.0000 , 0.0000 , 0.0000
0.0000 , 0.0000 , 0.0000
0.0000 , 0.0000 , 0.0000
0.0000 , 0.0000 , 0.0000
0.0000 , 0.0000 , 0.0000
0.0000 , 0.0000 , 0.0000
0.0000 , 0.0000 , 0.0000
0.0000 , 0.0000 , 0.0000
0.0000 , 0.0000 , 0.0000
-0.0000 , 0.0000 , 0.0000
-0.0000 , 0.0000 , 0.0000
-0.0000 , 0.0000 , 0.0000
-419.8913 , 21.3957 , 770.0000
-416.1331 , 21.3401 , 768.0000
-413.4656 , 21.3401 , 768.0000
-411.8679 , 21.3957 , 770.0000
-409.1934 , 21.3957 , 770.0000
-405.4630 , 21.3401 , 768.0000
-402.2711 , 21.3124 , 767.0000
-399.6070 , 21.3124 , 767.0000
-397.4604 , 21.3401 , 768.0000
-394.2789 , 21.3124 , 767.0000
-392.1254 , 21.3401 , 768.0000
-387.9366 , 21.2568 , 765.0000
-385.2795 , 21.2568 , 765.0000
-382.6224 , 21.2568 , 765.0000
-379.9653 , 21.2568 , 765.0000
-377.3082 , 21.2568 , 765.0000
-374.6511 , 21.2568 , 765.0000
-371.9940 , 21.2568 , 765.0000
-369.3369 , 21.2568 , 765.0000
-366.6798 , 21.2568 , 765.0000
-364.0227 , 21.2568 , 765.0000
-361.3656 , 21.2568 , 765.0000
-358.7085 , 21.2568 , 765.0000
-356.0514 , 21.2568 , 765.0000
-353.3943 , 21.2568 , 765.0000
-350.7372 , 21.2568 , 765.0000
-347.1701 , 21.2012 , 763.0000
-345.4230 , 21.2568 , 765.0000
-342.7659 , 21.2568 , 765.0000
-340.1088 , 21.2568 , 765.0000
-337.4517 , 21.2568 , 765.0000
-334.7946 , 21.2568 , 765.0000
-332.1375 , 21.2568 , 765.0000
-329.4804 , 21.2568 , 765.0000
-326.8233 , 21.2568 , 765.0000
-324.1662 , 21.2568 , 765.0000
-321.5091 , 21.2568 , 765.0000
-319.6856 , 21.3124 , 767.0000
-317.0215 , 21.3124 , 767.0000
-314.3575 , 21.3124 , 767.0000
-312.0998 , 21.3401 , 768.0000
-309.0294 , 21.3124 , 767.0000
-306.3654 , 21.3124 , 767.0000
-303.7013 , 21.3124 , 767.0000
-301.0373 , 21.3124 , 767.0000
-298.7622 , 21.3401 , 768.0000
-296.0947 , 21.3401 , 768.0000
-293.4272 , 21.3401 , 768.0000
-290.7597 , 21.3401 , 768.0000
-287.7170 , 21.3124 , 767.0000
-285.4246 , 21.3401 , 768.0000
-282.7571 , 21.3401 , 768.0000
-280.0896 , 21.3401 , 768.0000
-277.0609 , 21.3124 , 767.0000
-274.7545 , 21.3401 , 768.0000
-271.7328 , 21.3124 , 767.0000
-269.4195 , 21.3401 , 768.0000
-266.7520 , 21.3401 , 768.0000
-264.0845 , 21.3401 , 768.0000
-261.0765 , 21.3124 , 767.0000
-258.4125 , 21.3124 , 767.0000
-255.7485 , 21.3124 , 767.0000
-252.4245 , 21.2568 , 765.0000
-250.4204 , 21.3124 , 767.0000
-247.7563 , 21.3124 , 767.0000
-245.4118 , 21.3401 , 768.0000
-243.3765 , 21.3957 , 770.0000
-240.0768 , 21.3401 , 768.0000
-237.4093 , 21.3401 , 768.0000
-234.4361 , 21.3124 , 767.0000
-231.7720 , 21.3124 , 767.0000
-228.5106 , 21.2568 , 765.0000
-226.4440 , 21.3124 , 767.0000
-223.1964 , 21.2568 , 765.0000
-221.1158 , 21.3124 , 767.0000
-218.4518 , 21.3124 , 767.0000
-215.7878 , 21.3124 , 767.0000
-213.1237 , 21.3124 , 767.0000
-210.4597 , 21.3124 , 767.0000
-207.7956 , 21.3124 , 767.0000
-204.5967 , 21.2568 , 765.0000
-201.9396 , 21.2568 , 765.0000
-199.2825 , 21.2568 , 765.0000
-196.6254 , 21.2568 , 765.0000
-193.9683 , 21.2568 , 765.0000
-191.3112 , 21.2568 , 765.0000
-188.6541 , 21.2568 , 765.0000
-186.4833 , 21.3124 , 767.0000
-183.3399 , 21.2568 , 765.0000
-180.6828 , 21.2568 , 765.0000
-178.0257 , 21.2568 , 765.0000
-174.9101 , 21.2012 , 763.0000
-172.7115 , 21.2568 , 765.0000
-170.0544 , 21.2568 , 765.0000
-167.3973 , 21.2568 , 765.0000
-164.3095 , 21.2012 , 763.0000
-161.6593 , 21.2012 , 763.0000
-159.0092 , 21.2012 , 763.0000
-156.3590 , 21.2012 , 763.0000
-153.7089 , 21.2012 , 763.0000
-151.0587 , 21.2012 , 763.0000
-147.8250 , 21.1178 , 760.0000
-144.2302 , 20.9789 , 755.0000
-141.0451 , 20.8956 , 752.0000
-138.4332 , 20.8956 , 752.0000
-135.8212 , 20.8956 , 752.0000
-132.8550 , 20.8400 , 750.0000
-130.5973 , 20.8956 , 752.0000
-127.9854 , 20.8956 , 752.0000
-125.8736 , 20.9789 , 755.0000
-124.2307 , 21.1456 , 761.0000
-121.9070 , 21.2012 , 763.0000
-119.2569 , 21.2012 , 763.0000
-116.3011 , 21.1456 , 761.0000
-113.6579 , 21.1456 , 761.0000
-111.0147 , 21.1456 , 761.0000
-108.2290 , 21.1178 , 760.0000
-105.5893 , 21.1178 , 760.0000
-102.9496 , 21.1178 , 760.0000
-100.0459 , 21.0623 , 758.0000
-97.4131 , 21.0623 , 758.0000
-94.7803 , 21.0623 , 758.0000
-92.1475 , 21.0623 , 758.0000
-89.7509 , 21.1178 , 760.0000
-87.2258 , 21.1456 , 761.0000
-84.5826 , 21.1456 , 761.0000
-81.8317 , 21.1178 , 760.0000
-79.1920 , 21.1178 , 760.0000
-76.5523 , 21.1178 , 760.0000
-73.7180 , 21.0623 , 758.0000
-71.0852 , 21.0623 , 758.0000
-68.4524 , 21.0623 , 758.0000
-65.6460 , 21.0067 , 756.0000
-62.9368 , 20.9789 , 755.0000
-0.0000 , 0.0000 , 0.0000
-0.0000 , 0.0000 , 0.0000
-0.0000 , 0.0000 , 0.0000
-45.1533 , 18.0613 , 650.0000
-42.7637 , 18.0057 , 648.0000
-40.4504 , 17.9780 , 647.0000
-38.1441 , 17.9502 , 646.0000
-35.8448 , 17.9224 , 645.0000
-33.6045 , 17.9224 , 645.0000
-31.3642 , 17.9224 , 645.0000
-29.0788 , 17.8946 , 644.0000
-26.8419 , 17.8946 , 644.0000
-24.4905 , 17.8112 , 641.0000
-22.1946 , 17.7557 , 639.0000
-19.9751 , 17.7557 , 639.0000
-17.7279 , 17.7279 , 638.0000
-15.5119 , 17.7279 , 638.0000
-13.2334 , 17.6445 , 635.0000
-11.0105 , 17.6167 , 634.0000
-8.8084 , 17.6167 , 634.0000
-6.5959 , 17.5889 , 633.0000
-4.3972 , 17.5889 , 633.0000
-2.1951 , 17.5612 , 632.0000
0.0000 , 17.5612 , 632.0000
2.1952 , 17.5612 , 632.0000
4.3695 , 17.4778 , 629.0000
6.5438 , 17.4500 , 628.0000
8.7250 , 17.4500 , 628.0000
10.8889 , 17.4222 , 627.0000
13.0458 , 17.3944 , 626.0000
15.2202 , 17.3944 , 626.0000
17.3389 , 17.3389 , 624.0000
19.4750 , 17.3111 , 623.0000
21.6389 , 17.3111 , 623.0000
23.7646 , 17.2833 , 622.0000
25.8416 , 17.2277 , 620.0000
27.9951 , 17.2277 , 620.0000
30.0999 , 17.1999 , 619.0000
32.2499 , 17.1999 , 619.0000
34.2332 , 17.1166 , 616.0000
36.3728 , 17.1166 , 616.0000
38.5123 , 17.1166 , 616.0000
40.6519 , 17.1166 , 616.0000
42.7915 , 17.1166 , 616.0000
45.4416 , 17.3111 , 623.0000
47.7584 , 17.3666 , 625.0000
50.0890 , 17.4222 , 627.0000
52.2667 , 17.4222 , 627.0000
54.5313 , 17.4500 , 628.0000
56.7126 , 17.4500 , 628.0000
70.8977 , 21.0067 , 756.0000
73.7181 , 21.0623 , 758.0000
76.1493 , 21.0067 , 756.0000
78.6710 , 20.9789 , 755.0000
81.2934 , 20.9789 , 755.0000
83.9157 , 20.9789 , 755.0000
86.5381 , 20.9789 , 755.0000
89.1605 , 20.9789 , 755.0000
92.1475 , 21.0623 , 758.0000
94.7803 , 21.0623 , 758.0000
97.4131 , 21.0623 , 758.0000
99.7820 , 21.0067 , 756.0000
102.4077 , 21.0067 , 756.0000
105.0336 , 21.0067 , 756.0000
107.6594 , 21.0067 , 756.0000
110.2853 , 21.0067 , 756.0000
112.9111 , 21.0067 , 756.0000
115.5369 , 21.0067 , 756.0000
118.0065 , 20.9789 , 755.0000
120.6289 , 20.9789 , 755.0000
123.2513 , 20.9789 , 755.0000
126.0403 , 21.0067 , 756.0000
129.0065 , 21.0623 , 758.0000
131.6393 , 21.0623 , 758.0000
134.2721 , 21.0623 , 758.0000
136.5437 , 21.0067 , 756.0000
139.1695 , 21.0067 , 756.0000
142.1705 , 21.0623 , 758.0000
145.1853 , 21.1178 , 760.0000
0.0000 , 0.0000 , 0.0000
0.0000 , 0.0000 , 0.0000
0.0000 , 0.0000 , 0.0000
0.0000 , 0.0000 , 0.0000
0.0000 , 0.0000 , 0.0000
0.0000 , 0.0000 , 0.0000
175.5076 , 22.6461 , 815.0000
178.7760 , 22.7017 , 817.0000
181.1691 , 22.6461 , 815.0000
184.4514 , 22.7017 , 817.0000
187.2891 , 22.7017 , 817.0000
189.6614 , 22.6461 , 815.0000
192.2560 , 22.6183 , 814.0000
195.0832 , 22.6183 , 814.0000
197.9105 , 22.6183 , 814.0000
196.5455 , 22.1460 , 797.0000
200.0640 , 22.2293 , 800.0000
202.3356 , 22.1737 , 798.0000
205.1073 , 22.1737 , 798.0000
208.9210 , 22.2849 , 802.0000
211.1787 , 22.2293 , 800.0000
213.4225 , 22.1737 , 798.0000
216.1942 , 22.1737 , 798.0000
218.6915 , 22.1460 , 797.0000
220.9040 , 22.0904 , 795.0000
222.5399 , 21.9792 , 791.0000
225.2874 , 21.9792 , 791.0000
227.1699 , 21.8959 , 788.0000
229.9069 , 21.8959 , 788.0000
231.4629 , 21.7847 , 784.0000
234.1860 , 21.7847 , 784.0000
236.3048 , 21.7292 , 782.0000
238.4096 , 21.6736 , 780.0000
240.8097 , 21.6458 , 779.0000
243.5154 , 21.6458 , 779.0000
246.2211 , 21.6458 , 779.0000
248.9269 , 21.6458 , 779.0000
250.9866 , 21.5902 , 777.0000
253.0323 , 21.5346 , 775.0000
255.0642 , 21.4791 , 773.0000
257.7491 , 21.4791 , 773.0000
261.1078 , 21.5346 , 775.0000
266.1824 , 21.7292 , 782.0000
0.0000 , 0.0000 , 0.0000
302.5273 , 24.2022 , 871.0000
305.5526 , 24.2022 , 871.0000
308.5779 , 24.2022 , 871.0000
0.0000 , 0.0000 , 0.0000
277.0609 , 21.3124 , 767.0000
279.7249 , 21.3124 , 767.0000
281.6526 , 21.2568 , 765.0000
283.5664 , 21.2012 , 763.0000
286.9668 , 21.2568 , 765.0000
0.0000 , 0.0000 , 0.0000
0.0000 , 0.0000 , 0.0000
0.0000 , 0.0000 , 0.0000
296.0392 , 21.1456 , 761.0000
0.0000 , 0.0000 , 0.0000
0.0000 , 0.0000 , 0.0000
0.0000 , 0.0000 , 0.0000
0.0000 , 0.0000 , 0.0000
0.0000 , 0.0000 , 0.0000
0.0000 , 0.0000 , 0.0000
0.0000 , 0.0000 , 0.0000
0.0000 , 0.0000 , 0.0000
0.0000 , 0.0000 , 0.0000
0.0000 , 0.0000 , 0.0000
0.0000 , 0.0000 , 0.0000
0.0000 , 0.0000 , 0.0000
0.0000 , 0.0000 , 0.0000
243.7655 , 15.4772 , 557.0000
245.2590 , 15.4494 , 556.0000
246.7456 , 15.4216 , 555.0000
247.7772 , 15.3660 , 553.0000
248.7949 , 15.3104 , 551.0000
249.3437 , 15.2271 , 548.0000
250.3301 , 15.1715 , 546.0000
251.7646 , 15.1437 , 545.0000
0.0000 , 0.0000 , 0.0000
0.0000 , 0.0000 , 0.0000
0.0000 , 0.0000 , 0.0000
0.0000 , 0.0000 , 0.0000
0.0000 , 0.0000 , 0.0000
0.0000 , 0.0000 , 0.0000
0.0000 , 0.0000 , 0.0000
0.0000 , 0.0000 , 0.0000
0.0000 , 0.0000 , 0.0000
0.0000 , 0.0000 , 0.0000
0.0000 , 0.0000 , 0.0000
0.0000 , 0.0000 , 0.0000
0.0000 , 0.0000 , 0.0000
0.0000 , 0.0000 , 0.0000
0.0000 , 0.0000 , 0.0000
0.0000 , 0.0000 , 0.0000
0.0000 , 0.0000 , 0.0000
0.0000 , 0.0000 , 0.0000
0.0000 , 0.0000 , 0.0000
0.0000 , 0.0000 , 0.0000
0.0000 , 0.0000 , 0.0000
0.0000 , 0.0000 , 0.0000
0.0000 , 0.0000 , 0.0000
0.0000 , 0.0000 , 0.0000
0.0000 , 0.0000 , 0.0000
0.0000 , 0.0000 , 0.0000
-0.0000 , 0.0000 , 0.0000
-0.0000 , 0.0000 , 0.0000
-0.0000 , 0.0000 , 0.0000
-419.8913 , 18.7212 , 770.0000
-417.2168 , 18.7212 , 770.0000
-413.4656 , 18.6726 , 768.0000
-410.7981 , 18.6726 , 768.0000
-409.1934 , 18.7212 , 770.0000
-404.9351 , 18.6483 , 767.0000
-402.2711 , 18.6483 , 767.0000
-400.1280 , 18.6726 , 768.0000
-397.4604 , 18.6726 , 768.0000
-394.7930 , 18.6726 , 768.0000
-392.1254 , 18.6726 , 768.0000
-387.9366 , 18.5997 , 765.0000
-385.2795 , 18.5997 , 765.0000
-382.6224 , 18.5997 , 765.0000
-380.9587 , 18.6483 , 767.0000
-377.3082 , 18.5997 , 765.0000
-374.6511 , 18.5997 , 765.0000
-371.9940 , 18.5997 , 765.0000
-369.3369 , 18.5997 , 765.0000
-366.6798 , 18.5997 , 765.0000
-364.0227 , 18.5997 , 765.0000
-361.3656 , 18.5997 , 765.0000
-359.6463 , 18.6483 , 767.0000
-356.9822 , 18.6483 , 767.0000
-353.3943 , 18.5997 , 765.0000
-351.6541 , 18.6483 , 767.0000
-348.0801 , 18.5997 , 765.0000
-345.4230 , 18.5997 , 765.0000
-343.6620 , 18.6483 , 767.0000
-340.9980 , 18.6483 , 767.0000
-338.3339 , 18.6483 , 767.0000
-334.7946 , 18.5997 , 765.0000
-332.1375 , 18.5997 , 765.0000
-329.4804 , 18.5997 , 765.0000
-326.8233 , 18.5997 , 765.0000
-324.1662 , 18.5997 , 765.0000
-321.5091 , 18.5997 , 765.0000
-319.6856 , 18.6483 , 767.0000
-317.0215 , 18.6483 , 767.0000
-314.3575 , 18.6483 , 767.0000
-312.0998 , 18.6726 , 768.0000
-309.4323 , 18.6726 , 768.0000
-306.7648 , 18.6726 , 768.0000
-303.7013 , 18.6483 , 767.0000
-301.0373 , 18.6483 , 767.0000
-298.3732 , 18.6483 , 767.0000
-294.9381 , 18.5997 , 765.0000
-293.0451 , 18.6483 , 767.0000
-290.7597 , 18.6726 , 768.0000
-288.0921 , 18.6726 , 768.0000
-285.4246 , 18.6726 , 768.0000
-283.4935 , 18.7212 , 770.0000
-280.8190 , 18.7212 , 770.0000
-277.4221 , 18.6726 , 768.0000
-275.4700 , 18.7212 , 770.0000
-272.0870 , 18.6726 , 768.0000
-269.4195 , 18.6726 , 768.0000
-266.7520 , 18.6726 , 768.0000
-264.0845 , 18.6726 , 768.0000
-261.4169 , 18.6726 , 768.0000
-258.4125 , 18.6483 , 767.0000
-255.7485 , 18.6483 , 767.0000
-252.4245 , 18.5997 , 765.0000
-249.7674 , 18.5997 , 765.0000
-247.7563 , 18.6483 , 767.0000
-246.0509 , 18.7212 , 770.0000
-243.3765 , 18.7212 , 770.0000
-240.7020 , 18.7212 , 770.0000
-237.4093 , 18.6726 , 768.0000
-234.4361 , 18.6483 , 767.0000
-231.7720 , 18.6483 , 767.0000
-229.1080 , 18.6483 , 767.0000
-227.3297 , 18.7212 , 770.0000
-224.6552 , 18.7212 , 770.0000
-221.9807 , 18.7212 , 770.0000
-218.4518 , 18.6483 , 767.0000
-215.7878 , 18.6483 , 767.0000
-213.1237 , 18.6483 , 767.0000
-210.4597 , 18.6483 , 767.0000
-207.2538 , 18.5997 , 765.0000
-204.5967 , 18.5997 , 765.0000
-201.9396 , 18.5997 , 765.0000
-199.2825 , 18.5997 , 765.0000
-196.6254 , 18.5997 , 765.0000
-193.9683 , 18.5997 , 765.0000
-191.3112 , 18.5997 , 765.0000
-188.6541 , 18.5997 , 765.0000
-186.4833 , 18.6483 , 767.0000
-183.3399 , 18.5997 , 765.0000
-180.6828 , 18.5997 , 765.0000
-178.0257 , 18.5997 , 765.0000
-175.3686 , 18.5997 , 765.0000
-172.7115 , 18.5997 , 765.0000
-170.0544 , 18.5997 , 765.0000
-167.3973 , 18.5997 , 765.0000
-164.3095 , 18.5511 , 763.0000
-161.6593 , 18.5511 , 763.0000
-159.0092 , 18.5511 , 763.0000
-156.3590 , 18.5511 , 763.0000
-154.1118 , 18.5997 , 765.0000
-151.0587 , 18.5511 , 763.0000
-147.8250 , 18.4781 , 760.0000
-143.8481 , 18.3079 , 753.0000
-141.0451 , 18.2836 , 752.0000
-138.4332 , 18.2836 , 752.0000
-135.8212 , 18.2836 , 752.0000
-132.8550 , 18.2350 , 750.0000
-130.2500 , 18.2350 , 750.0000
-127.9854 , 18.2836 , 752.0000
-126.0403 , 18.3809 , 756.0000
-124.2307 , 18.5024 , 761.0000
-121.5875 , 18.5024 , 761.0000
-118.9443 , 18.5024 , 761.0000
-116.1483 , 18.4781 , 760.0000
-113.6579 , 18.5024 , 761.0000
-111.0147 , 18.5024 , 761.0000
-108.3715 , 18.5024 , 761.0000
-105.7283 , 18.5024 , 761.0000
-102.9496 , 18.4781 , 760.0000
-100.0459 , 18.4295 , 758.0000
-97.4131 , 18.4295 , 758.0000
-94.7803 , 18.4295 , 758.0000
-92.1475 , 18.4295 , 758.0000
-89.7509 , 18.4781 , 760.0000
-87.1112 , 18.4781 , 760.0000
-84.4715 , 18.4781 , 760.0000
-81.8317 , 18.4781 , 760.0000
-79.1920 , 18.4781 , 760.0000
-76.3508 , 18.4295 , 758.0000
-73.9125 , 18.4781 , 760.0000
-71.0852 , 18.4295 , 758.0000
-68.4524 , 18.4295 , 758.0000
-65.6460 , 18.3809 , 756.0000
-63.0201 , 18.3809 , 756.0000
-60.3943 , 18.3809 , 756.0000
-0.0000 , 0.0000 , 0.0000
-0.0000 , 0.0000 , 0.0000
-0.0000 , 0.0000 , 0.0000
-42.7637 , 15.7550 , 648.0000
-40.4504 , 15.7307 , 647.0000
-38.1441 , 15.7064 , 646.0000
-35.8448 , 15.6821 , 645.0000
-33.5524 , 15.6578 , 644.0000
-31.3156 , 15.6578 , 644.0000
-29.0788 , 15.6578 , 644.0000
-26.7586 , 15.6091 , 642.0000
-24.4140 , 15.5362 , 639.0000
-22.1946 , 15.5362 , 639.0000
-19.9439 , 15.5119 , 638.0000
-17.6723 , 15.4633 , 636.0000
-15.4390 , 15.4390 , 635.0000
-13.2125 , 15.4146 , 634.0000
-11.0105 , 15.4146 , 634.0000
-8.8084 , 15.4146 , 634.0000
-6.5959 , 15.3903 , 633.0000
-4.3903 , 15.3660 , 632.0000
-2.1951 , 15.3660 , 632.0000
0.0000 , 15.3417 , 631.0000
2.1847 , 15.2931 , 629.0000
4.3695 , 15.2931 , 629.0000
6.5334 , 15.2444 , 627.0000
8.7111 , 15.2444 , 627.0000
10.8889 , 15.2444 , 627.0000
13.0458 , 15.2201 , 626.0000
15.1958 , 15.1958 , 625.0000
17.3111 , 15.1472 , 623.0000
19.3812 , 15.0743 , 620.0000
21.5347 , 15.0743 , 620.0000
23.6881 , 15.0743 , 620.0000
25.7999 , 15.0499 , 619.0000
27.9499 , 15.0499 , 619.0000
30.0513 , 15.0256 , 618.0000
32.1457 , 15.0013 , 617.0000
34.1776 , 14.9527 , 615.0000
36.3137 , 14.9527 , 615.0000
38.4498 , 14.9527 , 615.0000
40.7179 , 15.0013 , 617.0000
43.5556 , 15.2444 , 627.0000
45.7334 , 15.2444 , 627.0000
47.9112 , 15.2444 , 627.0000
50.1688 , 15.2688 , 628.0000
0.0000 , 0.0000 , 0.0000
65.5592 , 18.3565 , 755.0000
68.1815 , 18.3565 , 755.0000
70.8039 , 18.3565 , 755.0000
73.4263 , 18.3565 , 755.0000
76.0486 , 18.3565 , 755.0000
78.6710 , 18.3565 , 755.0000
81.2934 , 18.3565 , 755.0000
83.9157 , 18.3565 , 755.0000
86.6527 , 18.3809 , 756.0000
89.1605 , 18.3565 , 755.0000
91.9044 , 18.3809 , 756.0000
94.5303 , 18.3809 , 756.0000
97.1561 , 18.3809 , 756.0000
99.7820 , 18.3809 , 756.0000
102.4077 , 18.3809 , 756.0000
105.0336 , 18.3809 , 756.0000
107.6594 , 18.3809 , 756.0000
110.2853 , 18.3809 , 756.0000
112.9111 , 18.3809 , 756.0000
115.5369 , 18.3809 , 756.0000
118.0065 , 18.3565 , 755.0000
120.6289 , 18.3565 , 755.0000
123.4145 , 18.3809 , 756.0000
126.0403 , 18.3809 , 756.0000
129.0065 , 18.4295 , 758.0000
131.6393 , 18.4295 , 758.0000
134.2721 , 18.4295 , 758.0000
136.9049 , 18.4295 , 758.0000
139.1695 , 18.3809 , 756.0000
142.1705 , 18.4295 , 758.0000
145.3764 , 18.5024 , 761.0000
0.0000 , 0.0000 , 0.0000
0.0000 , 0.0000 , 0.0000
0.0000 , 0.0000 , 0.0000
0.0000 , 0.0000 , 0.0000
0.0000 , 0.0000 , 0.0000
0.0000 , 0.0000 , 0.0000
0.0000 , 0.0000 , 0.0000
0.0000 , 0.0000 , 0.0000
181.1691 , 19.8153 , 815.0000
184.9029 , 19.9126 , 819.0000
187.2891 , 19.8640 , 817.0000
190.5922 , 19.9126 , 819.0000
192.2560 , 19.7910 , 814.0000
195.0832 , 19.7910 , 814.0000
197.9105 , 19.7910 , 814.0000
200.2446 , 19.7424 , 812.0000
200.0640 , 19.4506 , 800.0000
203.8569 , 19.5479 , 804.0000
206.1354 , 19.4993 , 802.0000
209.4420 , 19.5479 , 804.0000
212.2346 , 19.5479 , 804.0000
214.4922 , 19.4993 , 802.0000
216.7360 , 19.4506 , 800.0000
218.9659 , 19.4020 , 798.0000
221.4597 , 19.3777 , 797.0000
223.6653 , 19.3291 , 795.0000
226.4266 , 19.3291 , 795.0000
228.6114 , 19.2805 , 793.0000
230.1986 , 19.1832 , 789.0000
232.6439 , 19.1589 , 788.0000
234.7834 , 19.1103 , 786.0000
237.5135 , 19.1103 , 786.0000
239.0209 , 19.0130 , 782.0000
241.7370 , 19.0130 , 782.0000
244.4532 , 19.0130 , 782.0000
248.4336 , 19.1103 , 786.0000
250.5246 , 19.0616 , 784.0000
251.9556 , 18.9644 , 780.0000
253.6853 , 18.8914 , 777.0000
256.3841 , 18.8914 , 777.0000
258.4160 , 18.8428 , 775.0000
0.0000 , 0.0000 , 0.0000
0.0000 , 0.0000 , 0.0000
0.0000 , 0.0000 , 0.0000
302.5273 , 21.1769 , 871.0000
304.8510 , 21.1283 , 869.0000
307.8693 , 21.1283 , 869.0000
312.3187 , 21.2255 , 873.0000
314.6284 , 21.1769 , 871.0000
278.2661 , 18.5511 , 763.0000
281.6526 , 18.5997 , 765.0000
284.3097 , 18.5997 , 765.0000
0.0000 , 0.0000 , 0.0000
0.0000 , 0.0000 , 0.0000
0.0000 , 0.0000 , 0.0000
0.0000 , 0.0000 , 0.0000
0.0000 , 0.0000 , 0.0000
0.0000 , 0.0000 , 0.0000
0.0000 , 0.0000 , 0.0000
0.0000 , 0.0000 , 0.0000
0.0000 , 0.0000 , 0.0000
0.0000 , 0.0000 , 0.0000
0.0000 , 0.0000 , 0.0000
0.0000 , 0.0000 , 0.0000
0.0000 , 0.0000 , 0.0000
0.0000 , 0.0000 , 0.0000
0.0000 , 0.0000 , 0.0000
0.0000 , 0.0000 , 0.0000
0.0000 , 0.0000 , 0.0000
0.0000 , 0.0000 , 0.0000
243.7655 , 13.5425 , 557.0000
245.2590 , 13.5182 , 556.0000
246.7456 , 13.4939 , 555.0000
247.7772 , 13.4453 , 553.0000
248.7949 , 13.3966 , 551.0000
249.3437 , 13.3237 , 548.0000
250.3301 , 13.2751 , 546.0000
251.7646 , 13.2508 , 545.0000
0.0000 , 0.0000 , 0.0000
0.0000 , 0.0000 , 0.0000
0.0000 , 0.0000 , 0.0000
0.0000 , 0.0000 , 0.0000
0.0000 , 0.0000 , 0.0000
0.0000 , 0.0000 , 0.0000
0.0000 , 0.0000 , 0.0000
0.0000 , 0.0000 , 0.0000
0.0000 , 0.0000 , 0.0000
0.0000 , 0.0000 , 0.0000
0.0000 , 0.0000 , 0.0000
0.0000 , 0.0000 , 0.0000
0.0000 , 0.0000 , 0.0000
0.0000 , 0.0000 , 0.0000
0.0000 , 0.0000 , 0.0000
0.0000 , 0.0000 , 0.0000
0.0000 , 0.0000 , 0.0000
0.0000 , 0.0000 , 0.0000
0.0000 , 0.0000 , 0.0000
0.0000 , 0.0000 , 0.0000
0.0000 , 0.0000 , 0.0000
0.0000 , 0.0000 , 0.0000
0.0000 , 0.0000 , 0.0000
0.0000 , 0.0000 , 0.0000
0.0000 , 0.0000 , 0.0000
0.0000 , 0.0000 , 0.0000
-0.0000 , 0.0000 , 0.0000
-0.0000 , 0.0000 , 0.0000
-0.0000 , 0.0000 , 0.0000
-419.8913 , 16.0468 , 770.0000
-416.1331 , 16.0051 , 768.0000
-413.4656 , 16.0051 , 768.0000
-0.0000 , 0.0000 , 0.0000
-410.7877 , 16.1093 , 773.0000
-406.5189 , 16.0468 , 770.0000
-402.7955 , 16.0051 , 768.0000
-400.1280 , 16.0051 , 768.0000
-397.4604 , 16.0051 , 768.0000
-394.7930 , 16.0051 , 768.0000
-392.1254 , 16.0051 , 768.0000
-388.9508 , 15.9843 , 767.0000
-385.2795 , 15.9426 , 765.0000
-382.6224 , 15.9426 , 765.0000
-379.9653 , 15.9426 , 765.0000
-377.3082 , 15.9426 , 765.0000
-374.6511 , 15.9426 , 765.0000
-371.9940 , 15.9426 , 765.0000
-369.3369 , 15.9426 , 765.0000
-366.6798 , 15.9426 , 765.0000
-364.0227 , 15.9426 , 765.0000
-361.3656 , 15.9426 , 765.0000
-359.6463 , 15.9843 , 767.0000
-356.9822 , 15.9843 , 767.0000
-353.3943 , 15.9426 , 765.0000
-350.7372 , 15.9426 , 765.0000
-348.0801 , 15.9426 , 765.0000
-345.4230 , 15.9426 , 765.0000
-343.6620 , 15.9843 , 767.0000
-340.9980 , 15.9843 , 767.0000
-337.4517 , 15.9426 , 765.0000
-334.7946 , 15.9426 , 765.0000
-332.1375 , 15.9426 , 765.0000
-329.4804 , 15.9426 , 765.0000
-326.8233 , 15.9426 , 765.0000
-324.1662 , 15.9426 , 765.0000
-321.5091 , 15.9426 , 765.0000
-319.6856 , 15.9843 , 767.0000
-317.0215 , 15.9843 , 767.0000
-314.3575 , 15.9843 , 767.0000
-312.0998 , 16.0051 , 768.0000
-309.4323 , 16.0051 , 768.0000
-306.7648 , 16.0051 , 768.0000
-303.7013 , 15.9843 , 767.0000
-301.0373 , 15.9843 , 767.0000
-298.3732 , 15.9843 , 767.0000
-295.7092 , 15.9843 , 767.0000
-293.0451 , 15.9843 , 767.0000
-290.3811 , 15.9843 , 767.0000
-288.0921 , 16.0051 , 768.0000
-285.4246 , 16.0051 , 768.0000
-282.7571 , 16.0051 , 768.0000
-280.8190 , 16.0468 , 770.0000
-278.1445 , 16.0468 , 770.0000
-275.4700 , 16.0468 , 770.0000
-272.7956 , 16.0468 , 770.0000
-269.4195 , 16.0051 , 768.0000
-266.7520 , 16.0051 , 768.0000
-264.0845 , 16.0051 , 768.0000
-261.4169 , 16.0051 , 768.0000
-258.7494 , 16.0051 , 768.0000
-255.7485 , 15.9843 , 767.0000
-252.4245 , 15.9426 , 765.0000
-250.4204 , 15.9843 , 767.0000
-248.0793 , 16.0051 , 768.0000
-246.0509 , 16.0468 , 770.0000
-243.3765 , 16.0468 , 770.0000
-240.7020 , 16.0468 , 770.0000
-237.4093 , 16.0051 , 768.0000
-234.4361 , 15.9843 , 767.0000
-231.7720 , 15.9843 , 767.0000
-229.1080 , 15.9843 , 767.0000
-226.4440 , 15.9843 , 767.0000
-223.7799 , 15.9843 , 767.0000
-221.1158 , 15.9843 , 767.0000
-218.4518 , 15.9843 , 767.0000
-215.7878 , 15.9843 , 767.0000
-213.1237 , 15.9843 , 767.0000
-210.4597 , 15.9843 , 767.0000
-207.7956 , 15.9843 , 767.0000
-205.1316 , 15.9843 , 767.0000
-202.4675 , 15.9843 , 767.0000
-199.2825 , 15.9426 , 765.0000
-197.1394 , 15.9843 , 767.0000
-194.4754 , 15.9843 , 767.0000
-191.3112 , 15.9426 , 765.0000
-188.6541 , 15.9426 , 765.0000
-186.4833 , 15.9843 , 767.0000
-183.3399 , 15.9426 , 765.0000
-180.6828 , 15.9426 , 765.0000
-178.0257 , 15.9426 , 765.0000
-175.3686 , 15.9426 , 765.0000
-172.7115 , 15.9426 , 765.0000
-170.0544 , 15.9426 , 765.0000
-167.3973 , 15.9426 , 765.0000
-164.3095 , 15.9009 , 763.0000
-161.6593 , 15.9009 , 763.0000
-159.0092 , 15.9009 , 763.0000
-156.3590 , 15.9009 , 763.0000
-153.7089 , 15.9009 , 763.0000
-151.0587 , 15.9009 , 763.0000
-147.4360 , 15.7967 , 758.0000
-143.6571 , 15.6717 , 752.0000
-140.6700 , 15.6300 , 750.0000
-138.0650 , 15.6300 , 750.0000
-135.4600 , 15.6300 , 750.0000
-132.8550 , 15.6300 , 750.0000
-130.2500 , 15.6300 , 750.0000
-127.9854 , 15.6717 , 752.0000
-126.3738 , 15.7967 , 758.0000
-124.2307 , 15.8592 , 761.0000
-121.5875 , 15.8592 , 761.0000
-118.9443 , 15.8592 , 761.0000
-116.3011 , 15.8592 , 761.0000
-113.6579 , 15.8592 , 761.0000
-111.0147 , 15.8592 , 761.0000
-108.3715 , 15.8592 , 761.0000
-105.5893 , 15.8384 , 760.0000
-102.9496 , 15.8384 , 760.0000
-100.3099 , 15.8384 , 760.0000
-97.6701 , 15.8384 , 760.0000
-95.0304 , 15.8384 , 760.0000
-92.1475 , 15.7967 , 758.0000
-89.7509 , 15.8384 , 760.0000
-87.1112 , 15.8384 , 760.0000
-84.4715 , 15.8384 , 760.0000
-81.8317 , 15.8384 , 760.0000
-79.1920 , 15.8384 , 760.0000
-76.5523 , 15.8384 , 760.0000
-73.7180 , 15.7967 , 758.0000
-71.0852 , 15.7967 , 758.0000
-68.4524 , 15.7967 , 758.0000
-65.6460 , 15.7550 , 756.0000
-63.0201 , 15.7550 , 756.0000
-60.3943 , 15.7550 , 756.0000
-0.0000 , 0.0000 , 0.0000
-0.0000 , 0.0000 , 0.0000
-0.0000 , 0.0000 , 0.0000
-42.7637 , 13.5043 , 648.0000
-40.4504 , 13.4835 , 647.0000
-38.1441 , 13.4626 , 646.0000
-35.7892 , 13.4209 , 644.0000
-33.5524 , 13.4209 , 644.0000
-31.2183 , 13.3793 , 642.0000
-28.9433 , 13.3584 , 641.0000
-26.7169 , 13.3584 , 641.0000
-24.4140 , 13.3167 , 639.0000
-22.1599 , 13.2959 , 638.0000
-19.8814 , 13.2542 , 636.0000
-17.6445 , 13.2334 , 635.0000
-15.4146 , 13.2125 , 634.0000
-13.2125 , 13.2125 , 634.0000
-10.9931 , 13.1917 , 633.0000
-8.7945 , 13.1917 , 633.0000
-6.5854 , 13.1709 , 632.0000
-4.3833 , 13.1500 , 631.0000
-2.1847 , 13.1083 , 629.0000
0.0000 , 13.1083 , 629.0000
2.1847 , 13.1083 , 629.0000
4.3625 , 13.0875 , 628.0000
6.5229 , 13.0458 , 626.0000
8.6833 , 13.0250 , 625.0000
10.8368 , 13.0041 , 624.0000
13.0250 , 13.0250 , 625.0000
15.1958 , 13.0250 , 625.0000
17.3111 , 12.9833 , 623.0000
19.3812 , 12.9208 , 620.0000
21.4999 , 12.8999 , 619.0000
23.6499 , 12.8999 , 619.0000
25.7999 , 12.8999 , 619.0000
27.9499 , 12.8999 , 619.0000
30.0513 , 12.8791 , 618.0000
32.0936 , 12.8374 , 616.0000
34.2332 , 12.8374 , 616.0000
36.3137 , 12.8166 , 615.0000
38.4498 , 12.8166 , 615.0000
40.5859 , 12.8166 , 615.0000
43.5556 , 13.0667 , 627.0000
45.8063 , 13.0875 , 628.0000
47.9876 , 13.0875 , 628.0000
0.0000 , 0.0000 , 0.0000
62.9368 , 15.7342 , 755.0000
65.5592 , 15.7342 , 755.0000
68.1815 , 15.7342 , 755.0000
70.8039 , 15.7342 , 755.0000
73.4263 , 15.7342 , 755.0000
76.0486 , 15.7342 , 755.0000
78.7752 , 15.7550 , 756.0000
81.4010 , 15.7550 , 756.0000
84.0269 , 15.7550 , 756.0000
86.6527 , 15.7550 , 756.0000
89.2785 , 15.7550 , 756.0000
91.9044 , 15.7550 , 756.0000
94.5303 , 15.7550 , 756.0000
97.4131 , 15.7967 , 758.0000
100.0459 , 15.7967 , 758.0000
102.4077 , 15.7550 , 756.0000
105.0336 , 15.7550 , 756.0000
107.6594 , 15.7550 , 756.0000
110.2853 , 15.7550 , 756.0000
112.9111 , 15.7550 , 756.0000
115.5369 , 15.7550 , 756.0000
118.1628 , 15.7550 , 756.0000
120.7887 , 15.7550 , 756.0000
123.7410 , 15.7967 , 758.0000
126.7072 , 15.8384 , 760.0000
129.0065 , 15.7967 , 758.0000
131.6393 , 15.7967 , 758.0000
134.2721 , 15.7967 , 758.0000
136.9049 , 15.7967 , 758.0000
139.1695 , 15.7550 , 756.0000
141.7953 , 15.7550 , 756.0000
144.4212 , 15.7550 , 756.0000
0.0000 , 0.0000 , 0.0000
0.0000 , 0.0000 , 0.0000
0.0000 , 0.0000 , 0.0000
0.0000 , 0.0000 , 0.0000
0.0000 , 0.0000 , 0.0000
0.0000 , 0.0000 , 0.0000
0.0000 , 0.0000 , 0.0000
0.0000 , 0.0000 , 0.0000
0.0000 , 0.0000 , 0.0000
184.9029 , 17.0679 , 819.0000
187.7476 , 17.0679 , 819.0000
190.5922 , 17.0679 , 819.0000
193.4369 , 17.0679 , 819.0000
195.8022 , 17.0263 , 817.0000
198.1537 , 16.9846 , 815.0000
200.7378 , 16.9637 , 814.0000
203.0650 , 16.9221 , 812.0000
204.8711 , 16.8387 , 808.0000
207.1635 , 16.7970 , 806.0000
209.9630 , 16.7970 , 806.0000
212.7625 , 16.7970 , 806.0000
215.0271 , 16.7553 , 804.0000
217.8197 , 16.7553 , 804.0000
219.5146 , 16.6720 , 800.0000
221.7376 , 16.6303 , 798.0000
224.2280 , 16.6095 , 797.0000
226.9962 , 16.6095 , 797.0000
229.1879 , 16.5678 , 795.0000
230.7822 , 16.4844 , 791.0000
232.9391 , 16.4427 , 789.0000
235.6796 , 16.4427 , 789.0000
238.4200 , 16.4427 , 789.0000
240.2435 , 16.3802 , 786.0000
243.5918 , 16.4219 , 788.0000
244.4532 , 16.2969 , 782.0000
0.0000 , 0.0000 , 0.0000
250.5246 , 16.3385 , 784.0000
252.6017 , 16.2969 , 782.0000
254.6648 , 16.2552 , 780.0000
257.0440 , 16.2343 , 779.0000
0.0000 , 0.0000 , 0.0000
0.0000 , 0.0000 , 0.0000
0.0000 , 0.0000 , 0.0000
0.0000 , 0.0000 , 0.0000
301.1380 , 18.0683 , 867.0000
303.4478 , 18.0266 , 865.0000
306.4522 , 18.0266 , 865.0000
310.8877 , 18.1099 , 869.0000
313.1835 , 18.0683 , 867.0000
315.4655 , 18.0266 , 865.0000
0.0000 , 0.0000 , 0.0000
0.0000 , 0.0000 , 0.0000
0.0000 , 0.0000 , 0.0000
0.0000 , 0.0000 , 0.0000
0.0000 , 0.0000 , 0.0000
0.0000 , 0.0000 , 0.0000
0.0000 , 0.0000 , 0.0000
0.0000 , 0.0000 , 0.0000
0.0000 , 0.0000 , 0.0000
0.0000 , 0.0000 , 0.0000
0.0000 , 0.0000 , 0.0000
0.0000 , 0.0000 , 0.0000
0.0000 , 0.0000 , 0.0000
0.0000 , 0.0000 , 0.0000
0.0000 , 0.0000 , 0.0000
0.0000 , 0.0000 , 0.0000
0.0000 , 0.0000 , 0.0000
0.0000 , 0.0000 , 0.0000
0.0000 , 0.0000 , 0.0000
0.0000 , 0.0000 , 0.0000
244.2031 , 11.6287 , 558.0000
245.2590 , 11.5870 , 556.0000
246.7456 , 11.5662 , 555.0000
247.7772 , 11.5245 , 553.0000
247.8918 , 11.4411 , 549.0000
249.3437 , 11.4203 , 548.0000
250.3301 , 11.3786 , 546.0000
251.7646 , 11.3578 , 545.0000
0.0000 , 0.0000 , 0.0000
0.0000 , 0.0000 , 0.0000
0.0000 , 0.0000 , 0.0000
0.0000 , 0.0000 , 0.0000
0.0000 , 0.0000 , 0.0000
0.0000 , 0.0000 , 0.0000
0.0000 , 0.0000 , 0.0000
0.0000 , 0.0000 , 0.0000
0.0000 , 0.0000 , 0.0000
0.0000 , 0.0000 , 0.0000
0.0000 , 0.0000 , 0.0000
0.0000 , 0.0000 , 0.0000
0.0000 , 0.0000 , 0.0000
0.0000 , 0.0000 , 0.0000
0.0000 , 0.0000 , 0.0000
0.0000 , 0.0000 , 0.0000
0.0000 , 0.0000 , 0.0000
0.0000 , 0.0000 , 0.0000
0.0000 , 0.0000 , 0.0000
0.0000 , 0.0000 , 0.0000
0.0000 , 0.0000 , 0.0000
0.0000 , 0.0000 , 0.0000
0.0000 , 0.0000 , 0.0000
0.0000 , 0.0000 , 0.0000
0.0000 , 0.0000 , 0.0000
0.0000 , 0.0000 , 0.0000
-0.0000 , 0.0000 , 0.0000
-0.0000 , 0.0000 , 0.0000
-0.0000 , 0.0000 , 0.0000
-419.8913 , 13.3723 , 770.0000
-417.2168 , 13.3723 , 770.0000
-413.4656 , 13.3376 , 768.0000
-413.4725 , 13.4244 , 773.0000
-410.7877 , 13.4244 , 773.0000
-407.5748 , 13.4071 , 772.0000
-404.8934 , 13.4071 , 772.0000
-402.2120 , 13.4071 , 772.0000
-397.4604 , 13.3376 , 768.0000
-394.7930 , 13.3376 , 768.0000
-392.1254 , 13.3376 , 768.0000
-388.9508 , 13.3202 , 767.0000
-385.2795 , 13.2855 , 765.0000
-382.6224 , 13.2855 , 765.0000
-379.9653 , 13.2855 , 765.0000
-377.3082 , 13.2855 , 765.0000
-374.6511 , 13.2855 , 765.0000
-371.9940 , 13.2855 , 765.0000
-369.3369 , 13.2855 , 765.0000
-366.6798 , 13.2855 , 765.0000
-364.0227 , 13.2855 , 765.0000
-361.3656 , 13.2855 , 765.0000
-359.6463 , 13.3202 , 767.0000
-356.9822 , 13.3202 , 767.0000
-353.3943 , 13.2855 , 765.0000
-350.7372 , 13.2855 , 765.0000
-348.0801 , 13.2855 , 765.0000
-345.4230 , 13.2855 , 765.0000
-343.6620 , 13.3202 , 767.0000
-340.9980 , 13.3202 , 767.0000
-337.4517 , 13.2855 , 765.0000
-334.7946 , 13.2855 , 765.0000
-332.1375 , 13.2855 , 765.0000
